ncols 302
nrows 32
xllcorner    565680
yllcorner    4839070
cellsize     30.000000000000
1160.0906 1158.3816 1177.2384 1184.1285 1188.5538 1193.1188 1198.6511 1204.4967 1209.6917 1211.5051 1214.5741 1218.87 1223.549 1229.1105 1233.2449 1235.1608 1233.6488 1230.6783 1225.5258 1221.1564 1218.2252 1220.4878 1228.1484 1228.2971 1224.123 1216.9337 1214.7008 1211.5099 1208.7424 1208.9812 1220.2925 1224.7843 1222.4806 1222.4847 1227.441 1232.1335 1233.1459 1236.3474 1245.7693 1252.8765 1263.1166 1270.9672 1277.6516 1286.9706 1296.7723 1307.6096 1314.2788 1322.7269 1327.7704 1334.9269 1338.5455 1341.5791 1342.4484 1339.752 1341.5793 1345.7616 1339.3427 1329.4862 1328.2213 1333.3297 1347.5828 1353.3185 1345.5907 1341.8953 1348.5917 1345.563 1336.3771 1324.3993 1312.2063 1300.6636 1288.454 1272.2844 1263.4347 1254.9307 1254.9281 1257.8815 1255.0784 1246.597 1234.5413 1224.8643 1215.3582 1196.0615 1195.1121 1190.2521 1196.0861 1211.6479 1222.8575 1235.1206 1250.4042 1260.6779 1270.3948 1275.733 1295.7958 1310.3068 1329.4111 1337.9191 1352.2727 1362.8741 1377.1243 1396.8014 1409.5704 1424.4971 1432.9293 1444.688 1445.2349 1433.6051 1423.3416 1407.9967 1403.2498 1409.7375 1415.9474 1418.004 1406.0001 1394.629 1382.6727 1366.6554 1354.7531 1342.1969 1339.9132 1355.739 1365.1171 1377.2798 1393.1838 1404.3912 1419.2102 1419.7662 1422.6515 1423.0712 1420.6505 1416.0491 1408.7823 1399.8983 1389.5464 1374.1765 1366.5719 1349.764 1337.5343 1324.2067 1326.1927 1332.8187 1342.1041 1343.6252 1330.907 1341.738 1351.755 1356.2341 1356.8931 1352.2367 1335.1948 1345.7664 1354.7765 1360.0479 1366.038 1376.069 1374.8942 1383.8636 1391.1068 1395.7585 1401.0139 1408.8383 1422.8612 1423.3633 1422.1942 1419.843 1417.0078 1410.855 1416.9539 1423.7805 1421.4175 1428.3931 1435.662 1435.5773 1436.6343 1433.2108 1427.5336 1425.8934 1416.2659 1409.8712 1410.7858 1408.9933 1427.1176 1437.9525 1443.8619 1446.9337 1456.6182 1461.984 1462.2994 1453.8 1456.5447 1460.4752 1455.6393 1445.8401 1442.3586 1461.6339 1471.4329 1482.7386 1488.6727 1495.1886 1490.2417 1482.2415 1472.9685 1470.401 1462.7705 1462.7723 1486.4894 1503.5891 1525.0117 1540.6129 1550.3574 1549.1234 1554.9443 1566.5089 1576.624 1567.0482 1567.9847 1582.7435 1597.5044 1607.4866 1603.5714 1597.3744 1597.2811 1606.427 1607.105 1600.7026 1603.9257 1606.4738 1607.6781 1613.0739 1614.6139 1618.6071 1620.1768 1611.8887 1602.7024 1612.2114 1617.531 1619.5244 1634.5448 1640.2777 1646.046 1647.2804 1654.9417 1660.4323 1667.984 1672.2887 1671.2926 1674.978 1689.8258 1704.13 1708.3787 1727.1921 1737.3318 1750.7986 1760.5447 1769.1049 1774.479 1777.615 1773.6542 1770.3389 1767.5187 1764.7053 1756.5214 1745.6962 1734.4398 1724.071 1712.5247 1700.4792 1687.2347 1671.8286 1667.9745 1667.7445 1668.7616 1666.5631 1656.6111 1645.1996 1630.8602 1626.0408 1625.0947 1625.3812 1625.6251 1621.2316 1633.1278 1653.4119 1659.2295 1659.8794 1657.4756 1655.6866 1660.1865 1667.8763 1667.1003 1658.5782 1645.5168 1638.5299 1622.5138 1615.3594 1604.3687 1599.0532 1583.2135 1568.7822 1556.6351 1540.7191 1532.9213 1528.0291
1156.0627 1156.8325 1169.9529 1178.7223 1187.658 1194.8162 1199.6453 1203.3007 1207.1682 1207.9135 1212.5962 1218.356 1223.6844 1229.3888 1233.4882 1234.3717 1231.4276 1227.9266 1222.9343 1218.1315 1215.5919 1219.2506 1224.0771 1223.5873 1220.1987 1211.4791 1208.7811 1205.5934 1205.5998 1213.1874 1223.356 1234.4232 1236.6266 1231.3207 1234.7996 1244.8781 1255.4858 1252.6509 1254.9116 1264.3899 1272.8302 1278.8354 1288.3651 1294.6517 1301.9333 1309.6213 1315.0392 1322.0024 1326.0933 1331.8438 1333.601 1334.2523 1334.0542 1329.6409 1340.2181 1345.8188 1339.5653 1328.645 1319.5333 1328.7118 1343.2819 1343.3439 1334.0173 1337.6451 1344.1842 1347.453 1340.6498 1328.6144 1316.5844 1307.2042 1299.093 1292.3522 1279.3254 1265.8021 1252.0378 1241.6564 1236.5491 1236.2745 1230.8568 1222.2272 1214.0192 1196.3669 1192.9009 1189.3733 1193.7078 1203.712 1210.8409 1222.0789 1235.5245 1243.8131 1256.1415 1268.2439 1292.3309 1307.2866 1326.1467 1334.8131 1350.5854 1362.6317 1380.6219 1397.0299 1408.5424 1417.6566 1424.1232 1438.3652 1442.2527 1432.8807 1422.8584 1405.4218 1397.9625 1400.9196 1408.9584 1416.4269 1410.2759 1395.9734 1382.5846 1367.0148 1354.6221 1338.6178 1339.8699 1353.2639 1367.8746 1382.6876 1398.9985 1410.6268 1415.7108 1413.2102 1415.326 1415.2626 1407.4817 1402.8763 1399.2705 1395.5884 1387.613 1371.6798 1364.0944 1352.4398 1341.035 1318.0088 1315.884 1321.6859 1330.204 1334.5341 1323.1357 1325.8439 1330.0977 1333.3743 1338.3378 1340.7723 1327.2596 1328.6028 1337.1176 1344.0002 1350.3445 1358.6844 1363.4055 1375.9845 1379.2212 1386.7042 1392.1879 1397.7493 1397.6947 1398.5885 1397.4354 1394.4844 1391.0209 1400.8203 1407.4318 1401.4412 1405.2892 1411.3119 1413.8765 1412.9116 1416.7954 1416.1022 1405.5028 1405.3628 1402.005 1402.8219 1401.3331 1406.3009 1423.5942 1424.2277 1427.3289 1430.2639 1441.5638 1448.0636 1446.9346 1439.8903 1439.8424 1437.4575 1433.2203 1427.9971 1435.2175 1447.2148 1453.6959 1461.4763 1467.1606 1471.5099 1466.042 1460.1776 1454.6415 1452.354 1450.4009 1467.2762 1498.7598 1509.7804 1522.4415 1531.0887 1531.9216 1537.9341 1549.5944 1559.337 1558.9727 1556.2689 1562.6096 1575.1522 1593.4026 1598.9486 1593.5984 1587.0347 1591.6112 1597.3234 1596.976 1590.7555 1587.0859 1599.348 1602.171 1600.3918 1599.0251 1605.4573 1608.1106 1599.8364 1593.8596 1601.4597 1606.4052 1613.0708 1625.5051 1628.5978 1631.1456 1632.3811 1638.4783 1644.1255 1649.4885 1652.177 1655.4696 1672.1455 1682.3726 1696.4508 1703.4753 1721.8936 1731.3695 1744.1499 1755.028 1763.8915 1770.6466 1774.3574 1777.4023 1775.0621 1776.776 1780.4117 1768.1874 1755.6605 1738.5813 1721.3467 1707.8986 1695.2725 1681.616 1679.9409 1685.9966 1689.3662 1685.6086 1677.4634 1659.7687 1645.6914 1637.3446 1638.8523 1640.6919 1640.9406 1638.4774 1626.2004 1633.056 1654.1311 1665.5533 1679.108 1683.5521 1683.8839 1685.516 1686.4952 1684.8129 1679.547 1670.4341 1659.964 1646.168 1639.3295 1625.0664 1613.9799 1595.967 1588.1691 1578.6654 1566.5662 1558.1692 1539.1124
1152.4243 1157.4161 1169.9905 1181.3176 1189.4156 1195.0181 1198.4214 1198.9529 1201.5881 1205.8977 1212.1307 1219.2694 1224.2826 1229.5067 1233.2689 1234.2466 1229.9375 1224.427 1218.8582 1213.6257 1208.5037 1215.9106 1221.1987 1217.5291 1212.5498 1204.3344 1201.946 1202.2582 1207.2557 1222.3668 1229.3196 1239.4717 1244.7242 1238.2587 1240.7838 1251.3257 1267.3733 1266.776 1262.1536 1270.1736 1278.3815 1283.3862 1292.8661 1296.535 1302.1975 1306.8967 1311.8621 1318.9686 1322.2798 1327.3428 1327.6735 1327.0988 1326.4979 1328.9545 1339.5049 1342.8938 1341.3976 1327.6405 1316.479 1326.2827 1338.0226 1336.269 1329.5374 1336.0475 1344.7217 1351.1213 1342.4376 1330.1316 1318.6384 1311.3878 1305.9512 1298.6193 1286.5333 1274.5771 1261.8046 1246.8971 1232.9139 1219.007 1213.0735 1208.4633 1203.7585 1193.4856 1187.5369 1189.1033 1192.2552 1198.339 1205.9463 1215.6362 1228.2852 1238.3478 1258.2153 1270.988 1295.9208 1308.5004 1327.3807 1337.1805 1353.0908 1365.2648 1381.8312 1396.4437 1402.5337 1409.1688 1417.9325 1431.3801 1435.5137 1427.9507 1418.9883 1403.356 1389.8022 1392.8134 1404.1354 1414.0221 1406.4208 1391.8372 1376.9521 1361.562 1349.5596 1329.7102 1345.6027 1361.1349 1378.2404 1393.1204 1406.0275 1410.5487 1403.7927 1400.2976 1402.3179 1401.2902 1398.3412 1394.9114 1392.0643 1393.0398 1384.2532 1367.0646 1357.2478 1347.5933 1339.7726 1320.7505 1312.1813 1314.6068 1317.256 1320.4369 1313.0427 1309.7635 1309.7671 1310.3383 1316.8887 1320.4482 1318.678 1318.6817 1321.3939 1326.0137 1336.3557 1343.1008 1349.609 1359.4008 1362.4989 1368.813 1377.2972 1380.3892 1385.0627 1385.4747 1384.5304 1382.4244 1377.6425 1389.0435 1389.8988 1385.7858 1390.9556 1396.6113 1398.3662 1397.1509 1397.8302 1395.5649 1390.4093 1391.4679 1392.1521 1394.1655 1397.726 1406.577 1407.3722 1404.3843 1409.0258 1411.604 1420.6077 1426.5758 1428.8802 1425.6954 1428.5901 1425.578 1422.4557 1423.1611 1428.2085 1434.4988 1440.9028 1450.8004 1455.4132 1456.1464 1453.4794 1449.8782 1443.988 1444.4655 1449.2354 1465.0483 1486.249 1496.7417 1504.7699 1510.9684 1514.6553 1531.2565 1543.449 1547.943 1544.573 1546.326 1559.8319 1571.5769 1583.9236 1582.5104 1576.6069 1572.827 1580.3326 1581.6223 1578.7992 1577.8846 1584.8229 1597.7708 1597.2346 1591.0251 1588.6053 1597.8052 1599.9746 1593.83 1585.1102 1594.5402 1601.5758 1610.2559 1614.8518 1616.9023 1616.6819 1616.8518 1621.4187 1625.1006 1631.6279 1637.5583 1648.124 1660.6897 1672.4612 1685.6976 1697.6268 1711.6475 1723.3344 1734.6576 1745.4208 1755.6344 1763.7875 1770.3517 1774.9001 1780.4075 1782.75 1782.7311 1773.207 1754.7572 1736.7184 1719.2677 1703.699 1693.5352 1690.7701 1694.6301 1700.9325 1703.3766 1691.1178 1676.738 1657.5342 1654.0448 1658.3904 1659.5527 1659.7026 1656.012 1648.3789 1630.386 1632.7385 1654.4485 1666.7936 1687.2051 1694.5839 1696.5896 1697.3141 1696.8444 1692.8105 1687.2269 1681.5002 1675.2114 1661.296 1651.704 1635.0935 1624.5186 1611.6019 1605.4681 1597.4626 1582.0469 1573.2153 1558.306
1146.9939 1160.417 1174.0973 1184.4388 1188.0568 1190.6237 1193.0468 1194.2023 1199.1368 1205.5354 1213.1738 1221.3054 1225.9081 1229.6074 1232.8051 1232.9163 1227.3291 1221.3732 1214.5265 1209.0515 1205.084 1208.2819 1210.3361 1206.6705 1198.4176 1198.2026 1200.5393 1207.4487 1211.0035 1219.1129 1227.9607 1239.0128 1244.9917 1248.382 1247.1339 1254.8788 1268.8884 1270.3737 1268.9305 1274.233 1283.141 1288.6261 1295.3973 1296.3708 1298.9482 1303.9445 1308.3799 1314.9771 1318.632 1321.2512 1320.5559 1320.1566 1318.0475 1327.4795 1335.4625 1342.0159 1339.136 1324.6938 1314.2545 1320.0118 1328.64 1326.7932 1329.535 1339.8353 1353.3922 1353.9388 1343.8195 1331.0391 1319.3096 1310.8204 1306.8195 1300.1859 1290.173 1281.3447 1266.0233 1251.6746 1237.1847 1221.3994 1214.2242 1202.7301 1194.5436 1187.5128 1185.7201 1192.0959 1196.9647 1210.3323 1219.6758 1228.6659 1240.7797 1249.9971 1272.4092 1288.9751 1313.2312 1324.0226 1343.4348 1353.1508 1366.5774 1377.4679 1386.9728 1388.8214 1388.2233 1399.2463 1413.1345 1428.2621 1426.0492 1419.0652 1412.437 1400.0598 1387.4857 1384.2312 1399.5908 1405.4989 1401.2958 1390.9707 1378.0409 1359.8657 1342.6289 1325.5284 1349.0981 1368.8849 1386.7073 1395.3502 1400.8928 1401.777 1391.5848 1385.9071 1384.5354 1383.9115 1380.6497 1378.9589 1378.984 1380.5072 1371.5052 1354.8267 1341.7689 1324.0924 1320.9313 1317.0886 1309.5243 1302.2523 1302.4589 1302.5481 1302.5581 1304.4753 1312.3447 1316.8728 1316.8803 1316.8903 1316.8968 1326.8563 1331.6897 1327.5968 1327.8969 1328.6545 1333.2854 1338.725 1341.3564 1348.0426 1355.4973 1357.2845 1365.6772 1364.5457 1364.0088 1366.9778 1368.0067 1376.3915 1377.0959 1374.7255 1380.301 1384.3097 1385.7028 1385.4719 1386.0771 1386.0774 1386.0874 1387.8285 1387.8385 1387.8485 1389.7744 1391.2852 1393.5282 1394.853 1397.7258 1398.8234 1404.0923 1407.1681 1412.9465 1412.9524 1412.9624 1412.9724 1413.0974 1416.8885 1419.9106 1422.1093 1423.8988 1431.7131 1438.5254 1438.5328 1438.5428 1438.5519 1443.9785 1448.3699 1449.0104 1454.3818 1473.4142 1483.2391 1490.1218 1496.5814 1505.8792 1523.3846 1536.2505 1529.7018 1526.812 1539.3022 1551.0538 1557.79 1561.5518 1560.7753 1558.2217 1562.3302 1564.2544 1559.2957 1562.8322 1574.5693 1578.1539 1580.1888 1577.9886 1572.5778 1570.645 1577.0011 1578.8939 1577.1575 1574.4127 1582.8975 1594.2347 1600.0616 1603.2754 1605.8147 1605.559 1605.9532 1619.2507 1629.5336 1639.2539 1642.7689 1648.871 1661.3502 1673.9248 1693.8188 1696.0618 1703.9478 1711.8956 1723.9098 1734.1467 1743.6687 1752.7482 1761.1738 1770.0208 1774.6128 1776.2842 1774.2526 1769.1542 1751.5535 1733.0353 1717.0038 1712.3456 1714.1918 1719.7095 1724.2239 1721.4491 1707.4902 1688.7139 1675.8033 1670.2122 1674.6047 1677.7203 1680.584 1679.4868 1668.6407 1653.245 1634.5968 1636.8615 1657.9341 1669.2991 1689.2733 1701.9548 1710.6504 1710.9474 1709.439 1702.3829 1697.0687 1688.2958 1682.4196 1671.0336 1660.3984 1642.4076 1635.1984 1621.9139 1615.4393 1606.4011 1596.8231 1581.674 1580.0469
1149.0916 1162.2037 1171.6965 1180.1005 1182.5911 1183.158 1187.9935 1193.415 1200.2147 1208.5317 1216.9688 1223.9401 1228.2698 1232.306 1231.0222 1229.9542 1225.5547 1221.6405 1213.8269 1208.0431 1203.9497 1205.1746 1205.504 1199.1725 1194.0599 1198.1947 1205.4827 1213.5695 1218.2538 1227.653 1231.3053 1237.8108 1242.7528 1249.5958 1257.2963 1259.9418 1267.0696 1271.277 1277.5293 1280.7229 1285.448 1290.2872 1293.5651 1292.4984 1294.5516 1299.5424 1304.2164 1310.3362 1313.1082 1313.9696 1313.2809 1314.6381 1317.0653 1327.7151 1335.4736 1342.3002 1336.8756 1322.8116 1309.1848 1306.1162 1314.1324 1317.1936 1329.9666 1335.454 1344.6865 1355.1995 1344.6475 1331.7233 1318.4883 1305.3322 1293.5216 1295.812 1291.4037 1284.5216 1269.3408 1256.7798 1244.3693 1231.5334 1219.6392 1206.5029 1195.0383 1184.6299 1184.3949 1195.1082 1203.2721 1217.5349 1226.8394 1239.8302 1251.3671 1261.3589 1280.7174 1292.7134 1319.2567 1333.2955 1358.0955 1367.1654 1371.7056 1374.4727 1378.8882 1378.9003 1381.3988 1395.9095 1409.4622 1420.1654 1416.8853 1408.1815 1400.6669 1389.9766 1380.7009 1378.6072 1394.3802 1397.6211 1389.3842 1386.1326 1377.682 1359.65 1341.4485 1323.355 1340.3712 1366.9255 1381.0509 1389.901 1394.7812 1393.6194 1386.0859 1379.1359 1375.4921 1371.0494 1366.3433 1363.4529 1369.4323 1366.2615 1357.2649 1343.8965 1329.9305 1312.9857 1306.9629 1305.0254 1302.0419 1296.5363 1297.7072 1302.4681 1307.5847 1320.0647 1333.2729 1339.5715 1340.4116 1340.2751 1340.4695 1344.5406 1351.2566 1344.939 1338.7714 1334.9462 1334.759 1337.2601 1337.8783 1339.84 1342.5105 1346.042 1346.0492 1354.9208 1363.5717 1366.5455 1366.5555 1366.5655 1366.7272 1369.3643 1374.7374 1379.3264 1380.8474 1382.6178 1384.1274 1387.3839 1396.8163 1408.2866 1410.2646 1405.1154 1400.7709 1398.7892 1403.5769 1410.9575 1414.3387 1414.5505 1410.0001 1410.2721 1412.6624 1423.4717 1434.937 1442.7196 1450.6289 1456.8792 1457.3748 1454.0759 1450.7115 1442.1936 1438.5333 1439.7662 1448.0087 1465.4155 1473.2582 1473.3993 1468.7772 1461.4507 1461.4525 1461.4542 1463.0663 1471.2297 1488.3575 1505.2156 1513.5485 1512.7371 1520.9236 1532.1779 1541.3436 1546.5455 1549.1317 1548.9556 1551.4028 1553.8789 1552.5859 1547.5647 1560.2856 1563.6604 1564.3845 1563.8591 1562.8021 1558.1301 1555.8693 1559.0953 1559.8265 1561.4442 1567.282 1574.911 1581.3795 1586.5941 1590.8887 1593.6426 1597.218 1607.6508 1630.8788 1647.1315 1658.7559 1663.0491 1666.6548 1680.7271 1695.1718 1699.9846 1703.422 1706.7164 1710.0465 1720.079 1729.9097 1739.048 1747.6781 1756.2418 1766.5901 1771.5416 1771.1727 1768.8734 1761.4164 1746.7814 1731.5958 1727.0216 1729.8721 1732.1154 1734.7504 1733.2079 1717.5538 1704.8867 1690.3522 1686.7417 1687.1124 1692.8564 1702.5153 1702.9579 1691.4222 1674.0051 1656.7411 1640.0038 1637.4053 1657.2721 1669.6865 1689.1788 1700.729 1716.3579 1723.2841 1722.0399 1716.3678 1709.5269 1701.8542 1697.2103 1685.9652 1678.1417 1664.9994 1658.6619 1643.7076 1634.6029 1623.4131 1613.3855 1602.6432 1594.5668
1150.6803 1160.4137 1163.4878 1170.0928 1172.6991 1180.7235 1190.652 1197.3206 1205.7354 1212.9495 1220.4124 1227.6771 1232.0356 1232.2025 1229.1826 1226.7346 1224.1359 1221.5205 1213.2119 1207.3811 1200.1769 1198.3223 1198.2938 1192.512 1193.5159 1204.9463 1212.083 1221.8867 1227.0203 1234.4558 1237.3184 1241.834 1245.6741 1251.9268 1257.3716 1263.743 1270.8118 1274.4635 1280.9369 1283.1014 1285.9097 1287.673 1288.8051 1289.2051 1292.1788 1296.0031 1300.535 1306.4971 1307.8765 1305.6613 1306.694 1313.223 1318.8186 1330.2328 1336.504 1342.0757 1336.4796 1324.7631 1310.1224 1301.6742 1306.2881 1315.8735 1321.655 1329.4047 1342.0631 1350.5803 1344.0542 1329.4901 1315.2715 1301.647 1288.0814 1282.7457 1282.3931 1280.498 1268.6378 1259.1212 1244.6495 1232.8796 1219.234 1205.5289 1193.4089 1181.4701 1183.6764 1197.0216 1206.4115 1223.1511 1233.5541 1249.0775 1262.9731 1273.4575 1287.1686 1299.2817 1321.7216 1336.6453 1362.7544 1369.2004 1364.8965 1364.91 1369.4054 1369.3354 1378.1614 1392.0956 1405.5536 1416.4667 1412.8612 1403.5352 1394.5845 1381.6057 1369.0454 1375.9946 1391.522 1390.0896 1377.1085 1375.2452 1373.7529 1357.3545 1340.2062 1317.0547 1329.9015 1355.3835 1370.6539 1382.2114 1385.4463 1384.4601 1378.343 1371.9143 1363.8103 1362.116 1357.0707 1353.5591 1359.4602 1354.8633 1347.5864 1334.7097 1322.897 1305.5461 1299.7736 1296.7838 1294.6588 1295.24 1302.8628 1305.3064 1315.0211 1330.0205 1346.1324 1358.2616 1366.1404 1367.8252 1366.9768 1367.776 1372.0355 1368.6254 1361.1648 1355.2207 1350.3385 1349.3921 1352.2114 1349.7683 1346.0039 1346.0043 1353.0035 1371.8759 1388.6262 1395.9816 1384.788 1377.205 1391.8181 1398.2908 1399.6139 1403.054 1404.941 1404.7677 1403.6807 1399.2806 1404.9452 1428.125 1434.4305 1430.6763 1424.3378 1420.2246 1418.6594 1426.3367 1437.0702 1436.6288 1435.0208 1436.0813 1434.1475 1436.9675 1449.7472 1456.7402 1462.4669 1469.3982 1471.9912 1467.9971 1465.3972 1457.6464 1451.6475 1450.9672 1462.1678 1482.6993 1494.7942 1494.9939 1492.6886 1483.424 1472.3943 1474.7681 1470.9266 1470.9296 1474.5057 1486.9664 1497.1453 1500.5209 1509.3416 1517.6362 1524.9469 1527.9907 1530.8666 1533.6415 1540.3995 1541.7184 1539.3669 1535.8331 1548.024 1553.6646 1554.7311 1554.7312 1553.614 1549.8153 1549.8204 1552.7681 1556.6953 1562.8456 1569.1326 1571.938 1579.0642 1580.9767 1587.0791 1592.8209 1607.9272 1619.3389 1638.4542 1653.9972 1668.4266 1678.35 1681.79 1693.7079 1701.4523 1707.0945 1715.6321 1718.4404 1717.4286 1723.2699 1728.9905 1736.1409 1747.572 1758.1709 1766.7366 1770.323 1768.3488 1761.5424 1755.449 1743.8154 1737.5237 1739.505 1741.9667 1745.0951 1745.8728 1733.4229 1718.8237 1708.3524 1704.4904 1703.026 1701.5956 1707.4443 1718.1956 1714.66 1698.3002 1680.2345 1663.5632 1647.4868 1644.6469 1649.5022 1664.1499 1685.4277 1696.5525 1713.8971 1723.5916 1729.311 1725.2633 1721.9596 1711.5646 1705.7208 1695.0193 1686.964 1675.4109 1670.4543 1657.4072 1647.4541 1634.2938 1622.1603 1611.8851 1603.17
1145.7998 1150.9497 1157.4434 1166.2369 1174.365 1183.9167 1193.4961 1200.5018 1208.0015 1214.2853 1220.8735 1225.8337 1230.1288 1230.2788 1224.2471 1220.8524 1222.4855 1221.0128 1211.8424 1205.8451 1196.1414 1192.0206 1190.1759 1191.8602 1194.5243 1210.7889 1219.2197 1231.6158 1235.1462 1244.0763 1246.5195 1251.8347 1255.2939 1258.3564 1261.7905 1268.1807 1272.9106 1275.9595 1281.4598 1282.5355 1283.6094 1284.4434 1283.4983 1283.5596 1288.8513 1292.7275 1296.8702 1299.8931 1299.9357 1300.8314 1304.151 1315.2166 1324.6677 1333.6119 1337.4633 1336.6814 1332.1857 1325.3311 1313.178 1299.8561 1300.527 1308.673 1315.9309 1329.538 1340.5354 1347.0444 1343.579 1329.9805 1315.1583 1301.6951 1287.1802 1276.2645 1272.0555 1272.1509 1265.3402 1257.2911 1237.4807 1226.6143 1210.9503 1197.9553 1187.2568 1180.0809 1183.1035 1194.8052 1201.8138 1217.4136 1229.6788 1250.8148 1270.2614 1286.8158 1301.3275 1313.7799 1332.455 1345.8013 1360.6602 1358.2303 1349.3926 1351.9343 1355.579 1366.3644 1380.4829 1392.9844 1401.7406 1410.4379 1408.4812 1397.655 1389.0294 1378.1398 1364.4093 1374.7096 1388.8607 1384.8105 1367.6908 1362.2095 1364.1726 1351.8226 1336.8833 1312.6272 1320.7074 1347.2526 1361.8988 1370.98 1371.3839 1368.6708 1362.7777 1358.7372 1350.9231 1345.6299 1336.01 1333.9724 1339.1923 1334.1393 1330.4193 1319.9382 1306.7897 1294.5586 1288.7366 1289.8867 1292.8438 1304.6125 1314.5149 1321.0996 1315.6912 1327.0865 1344.7217 1355.7722 1367.1604 1379.1942 1383.5063 1391.8837 1393.578 1395.6687 1388.7885 1380.8488 1377.1477 1380.7268 1382.402 1376.9901 1378.0056 1379.7249 1371.8949 1384.3593 1401.3203 1411.8793 1397.2041 1385.3009 1401.959 1412.8668 1413.7489 1416.2118 1422.7196 1423.7623 1423.0183 1414.6061 1413.0613 1441.5592 1452.0175 1454.8748 1450.3745 1445.6644 1435.6107 1437.4531 1457.7157 1462.3494 1460.9087 1459.2556 1453.1351 1450.4537 1467.1937 1477.2126 1484.9282 1489.9976 1492.172 1489.4904 1484.4479 1470.9749 1463.3691 1463.2938 1474.6313 1491.0997 1508.3279 1510.0291 1507.4111 1498.2808 1488.4056 1489.2902 1488.6855 1480.1456 1474.5118 1474.5195 1476.7655 1484.2427 1492.155 1495.7504 1501.266 1505.855 1507.5391 1512.7566 1516.4017 1517.2202 1517.0297 1518.2694 1528.413 1531.807 1533.3784 1536.3236 1539.344 1546.3536 1556.0067 1570.4362 1571.5825 1570.3102 1575.1171 1589.5039 1595.3792 1597.8656 1600.8295 1604.2137 1620.3873 1632.4679 1647.9255 1659.746 1677.9288 1694.8154 1698.7107 1703.9391 1712.2455 1726.1304 1735.4313 1736.3958 1733.9584 1741.2649 1748.697 1753.1569 1761.2188 1771.9227 1777.4728 1776.2411 1773.8632 1774.3584 1772.887 1769.9778 1768.9092 1766.9308 1766.475 1764.8738 1755.2561 1737.667 1724.8361 1723.8134 1723.217 1720.8047 1718.2847 1725.6521 1732.6063 1723.8746 1704.4946 1691.3804 1672.3236 1667.6224 1665.8386 1653.2617 1653.4279 1675.5847 1689.6632 1710.4805 1722.0386 1736.3936 1736.3754 1728.1947 1719.4247 1709.1288 1695.9917 1687.9396 1676.0405 1670.7396 1655.7251 1643.8606 1630.7834 1621.4764 1607.6261 1594.5281
1143.0282 1149.6882 1160.0192 1172.4227 1182.6434 1191.9203 1197.3823 1202.3058 1207.8396 1213.5142 1219.0881 1223.5665 1224.6969 1224.2771 1220.7377 1218.849 1221.2202 1220.4193 1210.2909 1204.1997 1194.2352 1188.6741 1188.715 1195.1779 1199.7128 1207.2457 1217.7109 1231.8712 1235.3213 1243.6713 1246.6349 1253.8623 1257.4115 1260.3262 1263.6887 1267.5067 1271.4807 1274.4237 1278.0717 1278.9054 1280.0145 1281.1587 1278.9987 1280.1724 1285.3912 1288.8307 1291.8195 1293.9409 1292.4742 1301.2616 1308.594 1320.8235 1330.285 1334.392 1335.0863 1331.0155 1324.8824 1319.4637 1312.7731 1297.4011 1292.9712 1305.9329 1314.0837 1323.051 1329.7679 1343.8566 1342.9071 1329.2887 1314.7982 1300.4696 1286.8661 1274.7556 1256.3293 1256.2677 1253.9893 1248.3855 1232.4092 1220.942 1203.3571 1192.3002 1183.1788 1179.7332 1183.3104 1197.3479 1208.5623 1221.5095 1233.6523 1250.0049 1266.7837 1283.9592 1300.8943 1316.1849 1335.0455 1352.7056 1352.3112 1343.6484 1338.3284 1341.3007 1354.4417 1369.5208 1378.5392 1381.5126 1388.4973 1400.475 1402.9814 1392.0199 1376.1473 1364.6965 1356.2433 1374.056 1384.436 1381.7009 1365.8824 1352.3477 1355.3423 1348.8411 1335.0289 1310.5787 1317.4761 1341.4884 1356.8613 1365.3282 1361.4288 1357.0348 1351.519 1346.3934 1335.9514 1332.3201 1325.5696 1320.5486 1324.9438 1319.9313 1315.9558 1309.8763 1296.9973 1286.5391 1288.7362 1293.8442 1299.6603 1314.4409 1325.5007 1338.3073 1330.7448 1327.0941 1328.7189 1340.5012 1353.1219 1367.2052 1374.7375 1388.0299 1399.4294 1404.4843 1401.7483 1396.3866 1396.3367 1398.1418 1397.1218 1392.8623 1392.3542 1399.9565 1403.998 1407.9083 1426.61 1434.1495 1415.22 1400.5847 1417.3231 1435.3495 1442.5671 1445.0991 1446.9609 1447.3994 1445.4331 1435.6804 1427.3767 1451.0204 1465.9677 1474.8959 1468.3059 1462.2832 1453.7682 1451.3807 1470.6622 1482.3481 1486.76 1487.7731 1476.092 1467.0752 1489.2601 1503.3706 1513.7714 1517.2008 1518.5303 1514.5035 1506.4764 1491.6052 1487.9609 1485.2108 1499.5503 1515.2759 1529.288 1538.2825 1533.7461 1522.1685 1517.3367 1516.4705 1512.0588 1503.1587 1493.5316 1484.7081 1483.0969 1483.1055 1483.5038 1484.9562 1486.7643 1490.184 1495.9696 1497.6992 1503.3363 1504.6543 1513.7393 1523.6188 1525.8037 1527.7361 1536.5516 1553.4395 1558.8547 1568.3168 1577.5286 1594.4598 1594.9969 1588.6271 1584.9061 1586.9282 1600.8846 1611.9005 1620.6007 1625.1178 1634.3177 1643.9213 1662.7228 1672.8121 1688.1373 1700.9457 1706.9226 1710.4403 1722.3746 1736.5653 1745.8237 1746.9128 1743.1561 1749.1038 1757.626 1765.9039 1767.4463 1777.0957 1783.7974 1781.6752 1781.4952 1787.1377 1788.9618 1788.7974 1788.9133 1786.0343 1783.4543 1773.9467 1760.6084 1743.619 1738.6196 1740.6334 1739.3363 1736.3854 1737.1132 1741.9053 1743.4182 1731.5062 1710.8093 1697.2571 1683.3104 1684.7026 1680.0299 1666.6407 1655.599 1663.9911 1679.0889 1701.8102 1715.1384 1734.3912 1741.3007 1732.7905 1722.3857 1709.9474 1696.0457 1687.1577 1673.1215 1661.6561 1642.7466 1631.4374 1618.1366 1604.725 1591.5364 1581.3474
1146.8844 1157.5795 1168.259 1179.8575 1186.6548 1194.4285 1196.4419 1199.1085 1205.2078 1211.5435 1217.4849 1219.8527 1220.3551 1219.4274 1216.5697 1215.4988 1218.5834 1216.5693 1206.9169 1200.2654 1189.6615 1188.5353 1192.4426 1198.8488 1206.1774 1212.6694 1217.0559 1225.5453 1231.9491 1241.1257 1245.834 1252.4348 1255.9272 1259.6797 1262.8992 1266.2551 1269.9774 1272.1229 1273.9966 1274.5903 1275.1095 1274.8103 1275.3293 1277.1492 1282.0131 1284.1177 1285.7017 1289.0865 1292.4663 1300.6014 1309.4675 1321.0204 1329.6522 1333.2281 1334.1382 1330.8571 1322.3708 1314.5232 1308.6399 1296.3932 1290.1117 1301.9875 1306.4712 1317.3722 1328.2692 1340.4861 1340.0604 1326.2769 1310.8209 1296.7545 1284.1932 1273.1362 1255.4656 1244.7557 1241.9911 1239.4243 1227.9453 1219.3901 1196.6915 1185.3582 1179.6317 1179.6291 1186.5342 1201.7096 1213.161 1229.4515 1238.8503 1256.6949 1271.9139 1287.9097 1301.1608 1317.8292 1336.7761 1351.6582 1344.6931 1336.3708 1332.8431 1341.3601 1358.4213 1369.1437 1366.0693 1366.7877 1376.4045 1390.4247 1395.6722 1385.9874 1366.0073 1353.0753 1356.2367 1371.6873 1380.9176 1378.5205 1364.811 1345.9625 1341.4866 1343.6604 1332.2493 1307.463 1307.9475 1334.4594 1346.6375 1354.4349 1351.4718 1345.965 1339.5583 1334.7994 1327.5671 1324.7719 1320.5554 1314.3392 1316.3103 1311.8724 1305.4225 1299.5431 1284.7421 1286.5342 1294.396 1304.9325 1309.2485 1319.6593 1331.7876 1351.479 1352.9973 1352.3351 1349.6702 1354.8694 1365.5076 1368.2747 1373.6385 1380.2543 1390.5704 1406.2233 1416.0302 1416.2635 1418.8849 1422.4017 1418.6902 1410.2295 1412.0448 1415.6443 1422.9156 1431.6416 1448.3235 1452.276 1428.9012 1414.1837 1423.0544 1445.6305 1460.088 1467.3295 1468.0359 1466.3768 1463.1365 1453.8978 1446.8754 1460.2277 1475.5223 1488.452 1485.6639 1479.7585 1470.4899 1463.9388 1485.1957 1497.9954 1504.7562 1502.3352 1488.1046 1478.5775 1497.8809 1512.3337 1522.769 1527.4017 1527.2789 1523.6393 1513.5796 1503.9877 1502.2617 1498.3624 1510.3031 1527.5732 1544.2751 1553.8844 1550.4867 1541.5317 1536.0986 1536.076 1531.1033 1518.3357 1507.1946 1504.7368 1507.4318 1508.5406 1507.8273 1506.4745 1505.0709 1504.2675 1505.795 1512.8597 1518.1713 1513.4816 1519.944 1537.9535 1542.3851 1545.6472 1555.5297 1568.1979 1572.745 1584.2719 1590.2607 1606.4926 1607.6785 1603.7836 1600.4376 1594.621 1595.8461 1603.1294 1612.0212 1630.4125 1646.3326 1654.0515 1670.5449 1683.2137 1698.6774 1708.9905 1723.8368 1734.9492 1741.1569 1753.0739 1761.1676 1762.6501 1756.3708 1758.8523 1770.7544 1777.8258 1780.7341 1782.0582 1788.6511 1787.1801 1784.1608 1793.6427 1797.1959 1798.6893 1798.4608 1795.2408 1794.5767 1779.4656 1768.9706 1751.906 1755.9041 1755.0227 1754.6913 1753.3031 1753.8309 1757.6449 1751.2864 1739.3138 1719.0282 1703.8708 1700.1772 1701.2202 1695.3896 1682.3064 1669.6791 1663.9958 1670.0491 1694.3879 1707.7279 1730.7356 1734.7649 1725.111 1714.6938 1705.6685 1697.3457 1687.4326 1675.4878 1667.209 1647.3773 1635.73 1617.2948 1602.0543 1581.4655 1564.886
1151.1984 1161.1985 1170.6715 1179.3538 1184.7163 1187.8116 1190.0721 1196.0068 1202.5251 1210.4587 1213.8143 1215.697 1215.1333 1211.9069 1207.8644 1207.0995 1211.2992 1210.3062 1201.6533 1193.3802 1184.7068 1188.5328 1202.0394 1205.3921 1210.8811 1219.8505 1223.9604 1229.8612 1231.7524 1238.9614 1243.6953 1249.9537 1253.8616 1257.9427 1259.9991 1262.6396 1267.2118 1269.0038 1269.7117 1270.1554 1270.5325 1268.9104 1271.0364 1271.1652 1275.3937 1279.7771 1281.2847 1289.3707 1294.2882 1302.213 1310.5699 1320.2428 1326.8834 1332.1117 1331.6323 1329.1235 1320.9956 1311.0884 1300.2932 1293.3369 1286.543 1294.8009 1302.3495 1317.7518 1327.2261 1336.4585 1337.6904 1325.106 1310.7152 1297.335 1282.4729 1271.4587 1255.5494 1247.2606 1231.7385 1227.5756 1217.2063 1210.9723 1194.6777 1182.3868 1175.5222 1179.621 1189.6049 1208.5229 1220.2645 1239.1622 1249.9929 1266.0358 1279.14 1298.6796 1311.0615 1322.4797 1340.3401 1344.4441 1335.7338 1326.5167 1332.8384 1344.0254 1358.6586 1361.1956 1354.7383 1360.2211 1372.5015 1386.4611 1391.7551 1380.2438 1358.9033 1345.2677 1351.9631 1363.6313 1369.8925 1367.7574 1360.6345 1345.969 1330.4015 1330.3973 1324.2789 1304.4381 1300.4055 1325.691 1335.8284 1341.3289 1336.83 1329.0699 1324.5641 1320.219 1314.5984 1311.2714 1306.4227 1301.3586 1296.4211 1294.5388 1285.3351 1280.4841 1280.4882 1288.9045 1303.1959 1316.4445 1321.5397 1325.0806 1333.8438 1355.0526 1366.4469 1369.8912 1370.5309 1376.2915 1385.9282 1390.762 1393.0784 1398.7367 1396.0724 1400.3165 1405.4026 1417.027 1428.0474 1442.0374 1445.9084 1442.3706 1443.7239 1448.2942 1443.1809 1449.3464 1461.8647 1461.3907 1437.7549 1425.4645 1430.1138 1451.0643 1469.1674 1487.0035 1487.4873 1487.1729 1485.0565 1472.9148 1468.2078 1463.946 1480.3298 1500.7616 1502.2308 1496.5953 1486.2505 1483.0634 1501.015 1514.4211 1525.0421 1521.92 1501.1132 1494.6631 1512.832 1524.5006 1535.0652 1540.0469 1539.3875 1530.3479 1518.0793 1514.7457 1511.8374 1505.5028 1518.1295 1534.7084 1553.5525 1564.2386 1561.2609 1554.5431 1551.3433 1554.0356 1550.0139 1533.8167 1524.8944 1522.0356 1529.1879 1532.474 1532.5397 1532.1426 1529.7897 1527.781 1524.5773 1530.433 1536.3243 1526.1309 1526.2002 1544.6488 1565.0858 1571.0881 1580.2446 1590.7155 1595.4594 1603.316 1608.3197 1619.2924 1622.7837 1619.65 1615.1855 1606.4556 1603.5105 1605.4182 1608.4053 1624.885 1649.1946 1661.04 1680.9702 1694.0707 1705.9968 1723.1483 1742.2172 1756.6283 1767.0212 1774.6456 1779.3937 1781.5271 1776.0118 1773.0205 1787.9666 1796.0441 1797.6238 1795.821 1797.063 1797.1274 1793.2861 1802.5757 1809.1564 1813.3062 1813.4098 1810.9149 1805.304 1788.2559 1777.0302 1765.2335 1766.8239 1767.5173 1769.1992 1769.093 1771.2793 1771.6387 1757.4402 1748.5244 1733.8066 1721.8552 1720.009 1722.7897 1714.6191 1699.4139 1685.8829 1666.4492 1668.3015 1689.8119 1704.1185 1730.0083 1733.7559 1721.2098 1708.0983 1699.652 1691.0804 1682.7906 1673.5581 1664.5055 1652.2522 1641.3079 1621.0339 1597.8508 1578.0815 1576.4963
1151.1844 1158.9708 1163.3165 1168.2521 1171.7906 1178.2507 1184.0006 1196.4424 1202.1689 1209.8651 1212.027 1213.3176 1213.0521 1208.9393 1205.2769 1205.1981 1209.6906 1208.613 1198.7723 1188.3209 1184.6968 1196.1815 1207.4866 1210.3016 1212.7574 1219.2511 1224.9736 1233.7434 1235.9749 1242.4376 1245.881 1248.7988 1250.5559 1253.8468 1255.8987 1257.3654 1261.2059 1262.9756 1263.9038 1264.5054 1264.1399 1263.8508 1267.0962 1268.1237 1276.7972 1285.7439 1293.9205 1299.9659 1304.525 1309.5791 1317.0992 1321.0706 1327.1194 1328.8752 1323.74 1318.1636 1319.0519 1309.4198 1297.6732 1285.5308 1280.4539 1291.8546 1300.6504 1309.9216 1315.9352 1327.1617 1333.3177 1325.4681 1313.8218 1301.7577 1288.0153 1278.4855 1261.0819 1250.6128 1233.4 1222.4513 1207.5214 1200.9198 1188.9161 1179.9585 1172.9228 1182.4457 1192.5776 1213.683 1226.2383 1245.957 1258.4485 1277.2781 1290.2513 1306.8248 1320.396 1333.7882 1337.6641 1331.656 1323.0276 1317.6744 1335.3367 1349.3967 1357.7742 1347.4132 1340.4814 1355.3608 1369.7964 1382.3562 1380.3682 1368.2418 1346.6121 1332.2025 1344.642 1355.8788 1361.6385 1358.657 1356.5624 1344.6521 1330.8546 1321.9189 1319.4944 1302.3263 1296.0592 1321.4 1329.0577 1332.6003 1328.0061 1320.5393 1316.3131 1313.514 1307.3164 1303.8729 1298.4442 1291.9502 1283.4313 1282.7289 1277.6237 1277.625 1287.1382 1300.7227 1310.6736 1325.77 1336.8138 1340.5127 1342.3862 1354.4636 1364.5708 1376.0165 1383.9568 1388.3994 1393.4307 1401.198 1403.8865 1406.6073 1405.4628 1405.0361 1405.042 1413.1952 1423.7661 1442.2148 1454.8955 1463.3423 1468.0072 1470.2684 1474.803 1475.5718 1483.9589 1477.672 1456.9456 1442.0583 1436.2607 1453.9695 1477.6323 1493.7094 1505.1688 1508.9335 1506.595 1499.2899 1491.4802 1474.9702 1483.4608 1511.3591 1514.4856 1511.0116 1510.1564 1505.7164 1520.7241 1532.6908 1548.4604 1540.0746 1517.1277 1523.6692 1532.5527 1543.6228 1552.2379 1554.8635 1551.3145 1539.9196 1525.4973 1529.8718 1528.8893 1522.1355 1533.6495 1551.093 1569.833 1584.5507 1588.4917 1581.9299 1578.2629 1576.5347 1571.3483 1554.6205 1539.4608 1535.969 1548.4066 1552.8757 1552.6351 1552.2916 1550.8053 1548.0458 1546.9374 1548.1581 1543.6196 1530.9104 1526.2009 1540.4056 1561.614 1574.0713 1589.6097 1599.6504 1604.1802 1611.391 1614.7095 1622.7366 1629.2893 1639.1045 1640.3538 1634.9955 1627.4481 1621.9432 1619.4733 1621.9623 1648.2567 1666.0775 1679.2614 1699.551 1712.2178 1733.1007 1748.8501 1762.2542 1774.9609 1783.7723 1788.9299 1791.0157 1787.5826 1785.0974 1799.9116 1807.4414 1808.5564 1807.1492 1804.8394 1804.9318 1802.5162 1809.7799 1817.2676 1822.719 1823.436 1821.1019 1813.9589 1796.9601 1786.9077 1777.5433 1778.6261 1778.9567 1781.7229 1783.3152 1781.8275 1777.7816 1761.941 1753.254 1740.2948 1731.1742 1727.0463 1729.8799 1723.1921 1708.0139 1692.0681 1674.5253 1670.4199 1686.6338 1701.3613 1728.3975 1735.4811 1725.8727 1713.8165 1701.8201 1689.9097 1677.8706 1666.3223 1653.7749 1640.4769 1633.0406 1615.4703 1590.4564 1582.9838 1588.2252
1145.5413 1149.075 1153.3794 1159.3666 1168.0645 1177.2407 1185.4224 1196.6294 1201.5724 1208.859 1209.8444 1210.476 1210.6483 1205.975 1198.5803 1198.2437 1204.9718 1203.1459 1193.3474 1182.0917 1184.6925 1192.5774 1203.3567 1208.4779 1213.0613 1218.6456 1223.6616 1232.8982 1235.9736 1242.2542 1244.6464 1246.1855 1247.5023 1250.4362 1250.3652 1252.7593 1255.7216 1256.95 1257.1077 1258.2231 1257.3981 1258.8733 1269.324 1274.8441 1285.0715 1292.3622 1299.3949 1305.8237 1308.2933 1313.0779 1319.153 1322.113 1321.9647 1322.6691 1318.4061 1314.0521 1315.9263 1310.2072 1300.5352 1286.2812 1277.5662 1285.5992 1292.1725 1298.8297 1305.2123 1318.6819 1329.2742 1324.423 1314.2343 1301.7974 1287.7825 1277.509 1259.746 1248.9722 1232.3315 1222.3564 1208.9873 1200.152 1182.8845 1173.0004 1172.8128 1187.4679 1199.8331 1217.7723 1229.1238 1248.1073 1261.7581 1279.6443 1293.7693 1314.7046 1329.1213 1335.4432 1330.7261 1323.1154 1315.8735 1317.6698 1330.3778 1353.9961 1351.2285 1336.9421 1331.801 1350.6426 1365.5986 1375.1031 1368.5447 1358.6858 1338.8195 1323.4655 1332.2621 1343.9003 1350.1836 1346.3887 1346.2164 1338.3309 1329.5355 1311.9822 1309.8633 1296.7169 1290.4645 1315.141 1323.3137 1324.9387 1320.557 1314.6317 1312.9285 1310.3163 1305.1227 1301.8522 1296.7864 1290.3593 1278.6926 1276.243 1277.6184 1286.4841 1296.7323 1307.9644 1318.8418 1329.3016 1345.048 1354.4731 1354.9572 1361.6954 1367.8419 1378.9969 1391.3608 1400.3 1402.9006 1408.4055 1412.2006 1417.4534 1418.5654 1423.1616 1423.5206 1419.4102 1420.5049 1437.4838 1456.2782 1470.4886 1477.7024 1482.0996 1493.6335 1494.0978 1498.894 1493.1027 1469.8113 1460.5038 1444.9027 1445.5376 1467.8466 1486.1614 1503.0876 1515.6981 1520.3457 1518.8749 1513.2433 1500.8469 1495.7693 1519.0309 1525.9027 1525.4875 1522.676 1517.3618 1530.8385 1545.9387 1558.9344 1551.1077 1530.0129 1537.3838 1543.7947 1551.9607 1560.5342 1562.1042 1557.7141 1546.0277 1538.3817 1543.6389 1542.8365 1536.7546 1543.246 1556.017 1573.1256 1595.3595 1608.7454 1604.4432 1599.2095 1596.6567 1589.0204 1566.3975 1557.2908 1550.4117 1562.8116 1571.2113 1571.3008 1572.3021 1573.1953 1570.1252 1559.9719 1559.3212 1550.2756 1539.3125 1526.2109 1535.8735 1553.302 1564.9355 1578.3846 1587.5289 1593.9788 1599.4751 1601.8326 1613.5004 1621.6417 1640.2687 1650.6495 1652.1168 1647.7633 1641.8269 1637.4631 1633.0145 1642.774 1663.8453 1681.2505 1702.2129 1718.4862 1738.7322 1753.6494 1768.2726 1783.0571 1797.1976 1805.7269 1808.0697 1805.2646 1802.0055 1806.3304 1813.525 1818.2224 1815.4219 1811.8531 1809.882 1805.6847 1815.3551 1822.5247 1829.1256 1830.3055 1829.3569 1821.1133 1806.3367 1797.7794 1788.9607 1790.3107 1791.3361 1793.5972 1794.2115 1788.3054 1780.7812 1766.7361 1759.0612 1746.8137 1738.3502 1733.7375 1734.9821 1730.3298 1719.0403 1699.4503 1679.6088 1677.2136 1692.861 1707.6997 1729.821 1737.1488 1732.6836 1722.2703 1708.395 1695.9437 1682.3068 1668.6702 1654.876 1634.796 1618.3982 1603.0923 1597.0226 1598.3564 1608.6426
1139.1592 1144.5889 1149.672 1158.0515 1167.2494 1176.3524 1184.6405 1195.4386 1199.2471 1205.1401 1205.4009 1205.219 1205.0781 1200.3033 1194.7402 1194.7366 1198.807 1197.3254 1185.1847 1181.1158 1186.5685 1194.9905 1206.8716 1211.2806 1216.2255 1218.5251 1221.6405 1231.4908 1235.3313 1236.5835 1238.2462 1239.7504 1241.0181 1243.0144 1244.2388 1247.5895 1249.7003 1250.8131 1251.8118 1254.1017 1257.3901 1265.16 1275.8553 1281.9275 1292.4362 1295.9659 1302.9413 1306.5912 1308.3346 1314.9198 1319.7083 1322.0228 1316.9858 1314.8286 1311.3208 1304.6941 1313.1263 1314.6984 1303.2164 1288.6294 1277.3047 1280.5245 1285.2035 1292.2583 1301.7673 1316.3182 1325.0635 1322.3429 1314.7919 1299.0573 1284.3713 1275.0515 1259.595 1247.7339 1235.3335 1226.5471 1209.8636 1198.8021 1177.4338 1171.2571 1172.7041 1188.3663 1206.0669 1224.7056 1238.5273 1257.6287 1268.5634 1284.0781 1299.778 1322.0328 1342.6588 1331.582 1321.0702 1310.5968 1307.4739 1320.5792 1333.8864 1354.6233 1344.0651 1329.7189 1328.1904 1345.0575 1360.4417 1368.1393 1361.764 1352.7406 1333.9174 1316.5505 1311.5414 1324.3911 1330.6689 1326.6832 1328.1416 1324.7169 1319.6595 1304.1494 1294.491 1285.2517 1286.8751 1303.1234 1309.6958 1308.6738 1307.4977 1303.4897 1303.9467 1302.9088 1300.6665 1300.4449 1293.0216 1285.8232 1274.517 1271.2565 1282.6434 1296.1956 1307.8286 1316.176 1322.1826 1334.7416 1348.2637 1364.6398 1368.5809 1371.0581 1379.0558 1389.9193 1403.2101 1412.0317 1418.6044 1421.2899 1423.2765 1431.8875 1436.8929 1440.1332 1442.2659 1436.5891 1434.5729 1434.5796 1449.3831 1470.1228 1485.2639 1495.2479 1503.8949 1506.0962 1507.4502 1501.1912 1484.7113 1474.8687 1460.2329 1470.9799 1467.8553 1474.5983 1491.3796 1509.921 1521.8101 1533.3677 1528.9106 1520.1379 1512.6141 1524.813 1537.048 1541.0757 1539.6664 1534.9053 1542.8534 1562.8882 1572.0913 1564.1653 1550.743 1554.1859 1561.3204 1567.8236 1574.0101 1573.5549 1562.7216 1550.748 1549.3268 1554.3801 1553.4778 1547.3224 1550.3082 1564.4473 1572.8082 1595.4788 1615.89 1623.1099 1620.1356 1612.1968 1600.3145 1580.0457 1575.4152 1568.4454 1572.7103 1589.2255 1591.9053 1590.7632 1591.896 1587.7582 1581.9955 1577.1904 1559.8943 1550.5076 1526.2209 1526.4761 1546.0148 1553.7354 1566.9406 1579.681 1589.6392 1598.9865 1607.5583 1621.3591 1628.9631 1642.5277 1654.777 1662.2351 1660.8721 1655.2399 1650.4583 1644.7788 1643.7041 1660.5614 1682.6802 1703.5986 1714.7086 1736.7963 1754.5619 1772.7651 1789.2959 1805.3933 1822.1443 1830.0734 1826.2047 1822.3906 1820.7694 1829.7279 1834.5657 1832.6689 1826.7722 1820.7964 1817.5153 1825.2031 1835.1969 1845.5756 1845.2231 1835.687 1828.7584 1816.4646 1807.0958 1799.1469 1799.9197 1800.979 1800.8064 1798.2157 1790.022 1782.7841 1769.0377 1761.6515 1751.5726 1743.6426 1736.6976 1732.9296 1724.7732 1714.1942 1699.9784 1686.3655 1682.5004 1699.2131 1713.9972 1732.8273 1741.2207 1735.457 1723.2073 1709.9808 1695.6344 1677.3777 1662.1074 1649.8914 1637.6082 1610.2065 1607.8973 1615.3333 1618.5128 1626.2594
1139.657 1147.8589 1154.4622 1161.9619 1170.2977 1176.9386 1182.4604 1194.1101 1198.5739 1203.4437 1203.0571 1201.5098 1200.4808 1197.0879 1193.4888 1193.8035 1197.5276 1194.8885 1181.3789 1181.1071 1192.9329 1201.9294 1213.3429 1219.579 1221.9207 1222.6006 1227.7125 1232.9888 1234.4407 1232.131 1233.16 1234.0824 1235.4437 1237.3009 1239.3359 1242.7179 1244.8247 1244.864 1247.2563 1256.1868 1264.853 1271.6416 1281.953 1286.2239 1293.7424 1294.97 1296.6465 1300.6976 1304.8964 1312.8102 1318.6504 1321.1973 1312.5435 1303.5806 1301.8566 1300.4908 1311.9678 1318.7996 1305.5128 1290 1277.3013 1266.8103 1274.7252 1291.5059 1302.0381 1317.2703 1319.2904 1316.645 1309.8218 1297.0626 1281.5703 1270.3944 1255.6222 1247.3594 1233.0811 1221.2437 1200.7296 1186.1554 1167.4463 1168.5577 1173.6522 1190.4196 1208.6429 1229.686 1244.3229 1264.0956 1273.7628 1286.5449 1300.389 1319.3528 1326.5831 1316.3986 1304.2667 1295.5153 1307.472 1326.6459 1338.1514 1342.1254 1333.7607 1317.1927 1316.2698 1331.4053 1345.3278 1354.5884 1346.2194 1337.4475 1323.9779 1313.5188 1303.5714 1315.6355 1319.9434 1317.3679 1321.0432 1319.5886 1314.4309 1301.0841 1290.9869 1280.7543 1283.0404 1295.8856 1296.5746 1296.8263 1296.8491 1293.6027 1295.2439 1295.8008 1294.7544 1291.9703 1286.4257 1281.3718 1270.6593 1271.2552 1286.2518 1300.6359 1312.7375 1323.5267 1332.007 1342.6746 1355.5621 1371.0642 1380.4036 1383.4135 1391.4257 1399.9315 1408.2078 1416.6758 1423.8481 1428.6609 1429.6661 1436.0409 1442.5769 1448.7454 1450.986 1448.2169 1447.4778 1442.3088 1447.4263 1461.2408 1474.0049 1489.0409 1506.52 1515.6442 1524.6381 1523.074 1509.8169 1500.4572 1494.1714 1500.8982 1492.1261 1487.7657 1501.2488 1508.6741 1516.765 1538.5283 1542.7042 1540.5409 1533.4771 1531.5063 1547.0468 1563.2003 1563.7999 1558.6553 1560.0414 1580.4033 1588.774 1582.6445 1572.6437 1575.6581 1583.6349 1588.9114 1597.2004 1592.9376 1574.4431 1563.4203 1566.9415 1576.0363 1576.3221 1572.8439 1578.6656 1582.2432 1597.1233 1602.9615 1626.3893 1640.4674 1638.9492 1627.5322 1615.6212 1602.017 1593.9415 1590.0151 1587.8347 1602.5996 1610.9385 1611.7692 1612.9266 1614.8826 1604.3246 1592.6082 1569.7279 1555.6317 1531.0793 1533.926 1552.4312 1565.1649 1579.5095 1596.573 1608.8129 1619.9327 1624.8656 1632.5396 1640.093 1655.01 1664.4194 1677.6884 1681.6656 1680.9078 1678.6049 1674.2356 1669.9716 1667.5264 1688.1385 1705.5796 1718.7628 1738.3677 1755.2887 1774.1938 1790.3492 1808.7152 1826.4305 1835.2177 1840.7933 1837.9377 1835.7252 1843.2675 1845.8809 1843.9442 1838.718 1834.4128 1830.4988 1835.1757 1845.9746 1855.1239 1854.0997 1843.3458 1837.2292 1824.8284 1815.8094 1807.9869 1810.3702 1810.5023 1807.8712 1802.5823 1791.6447 1782.0972 1768.7378 1760.2177 1749.6122 1741.8329 1734.1559 1728.3528 1720.8623 1707.5222 1696.6125 1689.1724 1694.902 1711.0972 1723.7651 1743.7241 1748.1859 1736.3068 1721.6444 1706.8601 1689.9197 1670.8336 1653.2344 1638.1765 1629.6267 1623.9153 1618.8187 1628.772 1635.0056 1641.6775
1141.3174 1148.5685 1154.6954 1161.6244 1169.9237 1177.708 1184.5942 1195.0822 1198.495 1200.386 1198.4919 1196.8373 1194.3555 1191.0269 1187.0553 1190.7346 1193.9949 1187.0334 1175.8534 1181.1025 1196.6211 1206.1711 1216.2878 1221.3635 1223.9817 1225.1267 1229.595 1232.8502 1232.7029 1229.3546 1229.677 1230.5382 1231.9763 1231.809 1233.4821 1236.562 1241.5648 1244.4445 1253.6841 1260.3712 1270.0345 1274.0951 1281.8123 1285.2742 1289.3976 1291.0514 1293.0385 1298.9219 1304.8474 1312.2521 1318.5708 1319.4716 1311.4185 1301.6212 1294.465 1293.7732 1308.0045 1315.9905 1305.3834 1289.0204 1276.42 1262.1123 1271.4674 1289.4432 1298.3396 1308.3457 1309.1455 1308.8201 1306.3309 1295.7866 1284.8346 1271.3906 1253.9939 1243.7639 1221.6587 1207.9103 1188.9717 1174.7153 1167.3363 1170.2015 1182.4921 1195.1462 1212.713 1230.5317 1245.5702 1263.7266 1273.9869 1285.5537 1298.2642 1315.5303 1319.7585 1309.86 1297.288 1292.9679 1309.2708 1327.652 1332.2716 1328.4127 1324.5641 1306.9448 1305.6523 1320.8896 1334.5281 1343.5962 1332.0051 1322.9786 1314.3978 1306.5336 1291.3994 1301.7089 1307.1715 1304.3525 1310.0641 1310.057 1306.4849 1294.6412 1285.1473 1274.1345 1282.016 1289.7437 1289.9115 1290.3212 1290.7853 1289.6169 1290.5607 1291.0397 1289.4561 1285.8661 1282.4017 1277.0308 1270.6562 1273.5297 1293.623 1308.3546 1322.5033 1333.252 1343.3333 1353.2513 1367.1505 1382.5736 1392.2656 1395.6564 1401.1776 1406.686 1415.8785 1425.3538 1435.1171 1441.8596 1442.3472 1442.316 1448.7379 1458.116 1460.365 1460.3801 1459.6743 1457.8419 1457.6055 1458.3433 1469.5182 1483.231 1500.6409 1513.3953 1525.1578 1531.9434 1526.4661 1518.4131 1516.9093 1525.9122 1520.3381 1514.2747 1510.2114 1521.5397 1527.9342 1537.804 1550.8607 1557.6248 1552.8359 1543.2158 1555.4443 1573.6699 1576.4669 1572.2582 1569.0529 1589.197 1599.5066 1593.0349 1581.8831 1584.7212 1594.6483 1600.0713 1612.1873 1605.947 1588.6952 1578.8235 1581.1685 1591.5459 1597.0532 1592.2365 1598.5909 1601.0031 1613.9086 1622.6147 1635.3939 1652.0029 1655.5581 1646.0259 1637.4017 1620.0377 1611.6923 1609.3929 1609.1278 1616.9073 1625.5828 1630.2471 1630.1099 1625.2321 1610.3508 1595.9911 1575.7413 1562.8435 1542.5121 1533.9272 1543.9285 1560.5612 1578.6893 1597.1836 1611.3851 1617.7296 1620.5885 1622.472 1633.6041 1651.635 1664.1792 1682.9465 1693.776 1695.9408 1696.2777 1696.1591 1694.7705 1693.0293 1696.1835 1706.3971 1719.49 1744.5367 1757.9113 1777.0033 1793.8402 1812.5215 1829.9849 1840.4822 1848.4406 1847.2015 1845.9397 1850.6666 1853.1261 1851.7947 1847.5818 1844.6179 1841.6304 1847.52 1853.328 1861.04 1858.5442 1849.1984 1843.1868 1830.9276 1824.1562 1821.7726 1822.1609 1819.2465 1814.285 1806.8303 1797.1333 1784.9072 1767.6935 1759.3168 1747.5551 1739.3193 1729.4606 1719.3745 1709.5153 1701.8802 1698.1779 1704.4677 1715.8743 1725.3146 1734.2432 1747.6689 1745.6449 1730.985 1715.7948 1699.4822 1679.4973 1661.51 1650.0449 1648.8395 1646.9508 1638.2053 1629.8082 1635.7732 1644.8521 1655.3605
1141.0322 1146.6709 1153.1344 1159.8942 1168.4741 1177.287 1184.2838 1195.2029 1198.1487 1197.4382 1193.9174 1188.4945 1185.2941 1182.0562 1180.717 1185.5187 1182.7874 1174.9828 1175.3037 1186.7323 1204.5966 1210.3081 1217.1335 1219.9716 1222.5865 1224.1283 1225.4401 1226.3767 1224.9474 1222.7188 1223.355 1225.3405 1226.9506 1229.038 1231.752 1236.115 1244.4497 1248.1167 1256.036 1259.4839 1266.4161 1271.3851 1276.3735 1279.6 1282.0287 1287.7487 1292.1184 1299.0099 1305.5306 1312.4358 1318.4358 1316.8027 1309.1158 1300.7809 1288.2476 1288.9353 1303.5455 1310.4537 1305.0403 1288.925 1275.1311 1258.0388 1267.1742 1285.076 1292.8779 1300.0922 1300.6605 1302.4142 1302.323 1294.9606 1284.8628 1269.6572 1251.2345 1239.9728 1218.8164 1202.3553 1182.2695 1170.2628 1166.8555 1172.4313 1189.6438 1204.7089 1219.7954 1238.026 1252.3904 1266.9589 1278.1075 1289.5082 1302.4625 1312.1405 1309.2476 1299.9497 1289.074 1291.895 1310.1617 1324.6211 1324.3013 1318.3407 1318.192 1301.5961 1297.4803 1316.4438 1330.4614 1333.8402 1322.911 1311.3788 1298.3093 1292.6356 1279.0874 1286.3678 1293.8768 1290.1082 1296.3993 1297.3716 1293.7457 1284.2163 1272.4926 1271.7461 1278.2281 1279.8585 1280.0472 1280.2285 1280.2886 1280.3871 1280.9579 1280.7898 1278.4626 1275.9706 1274.2339 1270.6429 1270.6525 1278.8108 1298.5618 1313.7118 1330.7865 1345.1143 1354.2267 1360.6492 1372.355 1385.3341 1401.165 1405.3198 1413.0792 1417.2687 1427.312 1438.3378 1444.0621 1447.1602 1449.8939 1454.8217 1459.7742 1471.4476 1474.501 1474.7023 1476.3663 1475.5095 1473.139 1478.0326 1482.5518 1482.5571 1494.8931 1509.7639 1523.1914 1533.6675 1538.1154 1529.9623 1529.9152 1542.317 1540.9166 1532.765 1521.9438 1526.308 1544.2358 1548.0387 1551.2355 1573.4128 1573.3743 1559.8862 1564.0411 1584.9165 1591.8218 1588.9779 1583.9733 1598.0894 1614.6748 1610.0876 1595.7531 1596.4889 1604.7355 1616.7474 1623.6003 1614.9131 1598.1323 1588.5804 1590.5983 1602.6542 1607.604 1602.0011 1609.3818 1612.3712 1626.3347 1637.0045 1650.6307 1661.4015 1668.2836 1661.9237 1656.3475 1639.2548 1628.2488 1626.5393 1628.1387 1634.1438 1640.5007 1647.1912 1646.6479 1637.5488 1622.7814 1604.1934 1591.8801 1580.0952 1557.0754 1542.2715 1543.7325 1561.708 1583.8773 1599.8258 1610.3218 1611.4666 1614.8033 1622.5338 1635.1617 1653.3856 1665.6968 1684.4259 1698.0912 1702.1741 1703.254 1707.5176 1708.7125 1709.356 1709.3213 1708.7247 1722.0917 1742.8135 1757.6489 1780.8978 1796.6669 1813.8934 1831.1742 1843.7538 1860.0618 1864.3872 1865.306 1867.8583 1868.4482 1866.8716 1863.812 1861.6293 1860.12 1865.741 1868.5962 1867.2316 1861.3806 1850.7483 1844.2744 1834.6202 1831.2089 1830.3132 1827.8816 1821.3687 1816.6517 1806.6154 1797.1296 1786.3118 1772.675 1762.9646 1752.7097 1738.1984 1726.0326 1719.3759 1719.858 1721.5775 1726.299 1725.7365 1730.3064 1737.5135 1744.7828 1749.3475 1742.0049 1724.7794 1706.9845 1689.7942 1679.7897 1672.6406 1669.4139 1665.6045 1660.9777 1648.7882 1638.2662 1643.7872 1657.8783 1673.7576
1136.8296 1142.1763 1148.863 1159.7427 1169.001 1177.4777 1184.4592 1193.5867 1197.0542 1196.5598 1191.4586 1183.5072 1180.5092 1175.5389 1176.1724 1179.5974 1173.3027 1171.4735 1176.307 1189.6368 1206.2804 1207.4849 1214.3638 1219.0474 1222.4183 1220.5385 1219.9272 1219.9631 1218.5046 1217.7844 1218.924 1220.8361 1222.7935 1227.8427 1231.6987 1237.1172 1243.4833 1246.1598 1252.6669 1255.652 1262.3645 1267.6538 1274.4928 1280.0244 1284.4312 1291.0452 1296.326 1302.2848 1307.8525 1312.7892 1313.2185 1313.2919 1307.499 1299.8109 1283.6937 1279.0398 1286.5842 1297.2599 1301.2925 1290.1849 1273.7272 1250.1047 1254.2775 1274.7488 1282.3141 1285.5028 1285.8873 1293.2245 1298.1471 1294.73 1285.6359 1269.1271 1255.0027 1239.6675 1217.7529 1203.2919 1180.5269 1169.6205 1166.7517 1173.9171 1190.3602 1205.5762 1218.4586 1235.5259 1250.6284 1264.5665 1281.0189 1293.877 1302.5469 1300.5576 1292.7509 1283.3798 1275.464 1293.4716 1309.7734 1314.5707 1307.7529 1300.4366 1303.3496 1292.3741 1292.4548 1315.4164 1323.803 1317.4136 1309.5166 1303.6473 1289.3057 1284.4181 1270.1387 1278.2217 1285.9899 1280.1982 1287.0618 1287.8898 1284.0834 1275.4548 1266.4255 1270.5173 1273.3943 1275.2786 1274.9747 1272.9753 1271.6532 1268.7194 1269.9315 1270.3473 1268.6813 1266.4304 1265.9128 1263.4177 1271.6292 1284.4623 1299.3813 1317.5439 1332.8864 1344.1013 1346.6337 1352.4989 1367.3679 1380.6265 1398.8188 1405.7845 1410.3574 1413.6886 1422.9822 1432.4307 1440.0924 1438.7291 1441.3535 1455.8105 1464.9446 1477.941 1478.848 1480.4572 1483.7043 1485.9403 1483.2303 1486.5382 1494.0143 1498.4742 1499.4659 1506.8579 1520.8171 1532.6099 1550.1102 1551.1932 1547.8927 1556.4072 1555.4673 1548.1387 1541.8057 1536.2725 1545.9108 1566.9532 1568.4612 1585.718 1592.6982 1587.062 1586.1022 1603.7867 1613.3531 1614.7069 1612.8542 1619.1803 1631.238 1629.4825 1619.3115 1620.1005 1626.687 1637.661 1642.1403 1633.7449 1617.1492 1613.4407 1616.0553 1628.3262 1629.0706 1621.8212 1625.2882 1632.3226 1646.7753 1657.176 1667.9503 1671.9293 1681.0382 1678.3237 1669.9877 1654.7156 1648.0575 1649.099 1649.4244 1655.8892 1661.9165 1666.8987 1662.2633 1646.7108 1630.0579 1621.0211 1605.6857 1592.5708 1567.1322 1551.8149 1550.8641 1570.1935 1585.0931 1594.1355 1600.9985 1611.8844 1623.1447 1630.4146 1641.1038 1656.8733 1670.0476 1683.0479 1698.5216 1707.5107 1717.9115 1722.3687 1724.5524 1725.4004 1723.8201 1719.3634 1731.6404 1749.6429 1759.3898 1779.0166 1792.3011 1812.8523 1830.4821 1845.0645 1865.2489 1876.6654 1881.171 1881.927 1881.6222 1880.1553 1877.2793 1875.449 1874.9193 1877.6359 1877.8496 1871.951 1863.6042 1849.7258 1841.5574 1834.8989 1831.2361 1827.2802 1823.6842 1818.6266 1809.5255 1798.2848 1788.4879 1779.9949 1772.188 1760.7716 1749.5712 1734.4669 1726.5085 1726.9911 1731.9154 1736.1034 1740.4955 1746.9391 1753.1301 1759.326 1762.4399 1758.3096 1739.15 1718.5273 1700.2802 1694.165 1695.1133 1691.4492 1687.8452 1682.1263 1673.0702 1657.4703 1646.1729 1655.5077 1671.91 1691.4828
1137.4769 1143.5079 1148.7323 1158.5818 1170.0521 1177.4994 1184.234 1191.5813 1196.3907 1194.6045 1188.6101 1178.8988 1174.1082 1169.3005 1172.095 1171.9708 1168.0951 1171.4679 1179.171 1188.3273 1201.1804 1206.3826 1214.9663 1220.2902 1221.9265 1218.9617 1217.0182 1215.3363 1214.3549 1215.4243 1218.8145 1220.2351 1224.2697 1229.6743 1233.161 1239.4594 1244.4637 1249.2462 1255.225 1261.1648 1268.6041 1273.8073 1279.0466 1282.6163 1286.2712 1293.5449 1298.582 1304.197 1308.1625 1310.5476 1308.3789 1307.6238 1307.5391 1300.4399 1283.338 1274.9712 1274.7822 1282.1519 1293.5819 1286.9442 1271.6274 1245.9724 1245.6146 1265.2126 1271.4773 1273.1764 1277.0944 1291.4554 1296.9244 1295.0623 1284.7086 1269.7205 1254.1605 1237.7411 1213.7759 1200.198 1178.8247 1169.2527 1166.6455 1171.1818 1185.5592 1198.3087 1210.0728 1225.2161 1244.1991 1262.1104 1279.9327 1291.0347 1295.4475 1290.6481 1281.6239 1268.625 1272.6738 1293.9707 1307.175 1304.9131 1298.0178 1290.24 1293.5536 1284.0638 1292.7987 1311.0469 1311.2048 1302.9388 1294.9564 1292.6884 1281.7426 1273.7236 1263.3003 1263.9469 1278.0073 1271.5142 1274.6886 1277.8818 1275.342 1268.4694 1261.5398 1266.8079 1272.3964 1273.199 1272.4794 1269.4086 1265.4163 1260.7777 1261.6271 1260.6323 1259.9557 1259.9651 1260.4531 1263.3688 1267.6169 1285.3966 1299.3962 1315.6976 1326.0645 1329.5652 1332.2374 1348.5094 1365.3264 1378.2749 1395.4357 1403.0449 1396.1216 1398.7062 1414.1697 1420.0325 1425.533 1426.1915 1434.7444 1452.6609 1462.3433 1478.1749 1479.193 1482.4821 1487.1016 1491.8695 1491.4523 1489.7883 1497.5992 1506.7225 1517.8168 1519.0851 1520.9976 1528.6923 1554.2614 1564.882 1572.776 1576.644 1573.579 1569.1445 1567.6057 1562.8912 1558.897 1576.5116 1585.1427 1592.9381 1604.4519 1602.4933 1598.791 1613.1327 1621.9836 1625.9576 1626.6906 1630.7004 1638.2411 1640.226 1635.1871 1638.6455 1643.8542 1653.4214 1653.9202 1644.2325 1633.7043 1632.9015 1634.0975 1644.9576 1643.9855 1635.4222 1639.438 1648.6902 1664.8185 1670.9282 1683.0028 1686.0081 1692.8353 1691.4904 1685.587 1671.7299 1671.1941 1670.045 1668.1483 1674.615 1677.547 1676.7959 1668.4358 1651.0593 1637.1265 1627.9562 1614.8076 1596.0792 1570.1919 1555.0126 1550.8741 1565.9414 1581.2682 1596.6661 1609.8422 1615.3589 1620.7819 1626.0497 1637.8015 1650.6035 1665.2664 1676.0205 1689.9932 1701.8533 1713.6801 1732.1832 1743.2086 1745.9315 1745.0828 1742.3942 1741.9756 1765.2838 1777.403 1790.3334 1797.668 1814.2159 1830.208 1845.7888 1865.7262 1880.2347 1889.0225 1889.4404 1888.1184 1887.4685 1887.1063 1885.0897 1883.8873 1884.5757 1883.708 1875.3329 1865.5796 1852.1095 1843.7152 1834.3087 1830.1699 1826.5778 1818.8516 1814.9263 1804.8978 1794.7729 1784.1731 1773.4805 1765.927 1753.6479 1743.1113 1735.2977 1736.5146 1741.1023 1745.7249 1750.0454 1754.6948 1762.113 1768.8693 1771.8615 1770.4757 1760.1155 1738.4377 1716.4805 1709.2987 1712.8019 1716.3916 1711.9967 1701.2357 1690.3528 1677.9796 1664.1591 1659.4006 1671.6686 1685.9355 1702.5017
1146.8024 1150.0859 1150.6326 1157.1714 1167.8282 1174.3025 1180.8876 1189.8058 1194.4558 1191.8397 1186.422 1176.1219 1169.7346 1163.1558 1162.7186 1163.837 1168.0874 1180.1349 1189.5491 1194.9045 1202.1085 1207.9823 1215.5535 1218.2201 1217.5396 1214.1987 1211.9264 1209.9783 1209.2904 1214.7986 1220.7 1223.119 1228.0386 1232.0989 1236.7125 1242.6627 1248.9912 1255.6556 1260.9495 1268.3749 1272.9788 1280.6691 1282.9312 1284.4554 1288.3185 1294.8624 1299.8169 1305.946 1307.2682 1306.1765 1304.6897 1304.4005 1307.297 1302.7986 1284.6899 1274.8721 1268.0833 1274.365 1283.8491 1282.6577 1269.3605 1246.8124 1239.3518 1257.0366 1260.6079 1265.9242 1274.4403 1289.9891 1296.4144 1294.9246 1282.4811 1266.4301 1247.8044 1232.0483 1213.563 1198.3074 1179.5404 1169.5953 1166.5439 1166.6555 1174.968 1184.6683 1196.1976 1216.8429 1239.7413 1259.2668 1276.9166 1284.1326 1285.8995 1280.5563 1268.387 1255.9287 1272.8877 1292.4323 1303.4495 1299.6504 1293.4752 1283.3977 1285.3257 1284.0551 1294.392 1300.6138 1298.4973 1290.9447 1281.1874 1279.9014 1273.5846 1265.1346 1252.5096 1253.1522 1268.9543 1262.0314 1262.1581 1266.2939 1266.4843 1262.6061 1256.2733 1262.1799 1270.6472 1270.1241 1267.9795 1259.1034 1253.5939 1253.2486 1253.4069 1254.2939 1256.098 1260.2709 1263.6818 1265.4758 1266.5099 1283.5121 1296.0237 1309.2924 1317.3004 1319.4084 1328.0544 1342.3304 1362.29 1376.1324 1391.3472 1391.264 1382.7003 1385.7803 1399.1476 1405.6465 1410.5333 1418.8873 1428.6851 1444.1075 1453.2891 1461.1213 1464.1837 1476.4441 1484.9761 1497.8983 1503.0282 1502.5616 1503.3271 1512.9675 1525.2646 1531.9923 1532.5358 1533.0781 1552.5793 1567.8177 1583.3325 1588.9064 1589.5846 1588.0006 1585.2152 1582.5815 1579.2841 1586.9988 1599.9208 1603.8274 1616.387 1619.1775 1617.4943 1624.5656 1630.5905 1637.7266 1642.2876 1645.0876 1648.1508 1649.2321 1648.267 1651.1589 1656.3823 1660.9296 1660.1621 1649.6954 1643.4124 1643.7773 1645.3308 1657.9122 1655.455 1649.3682 1654.7776 1663.8782 1680.3333 1685.9358 1697.1737 1698.9125 1701.428 1700.011 1697.7246 1691.4331 1689.3458 1689.385 1689.0969 1694.0906 1696.3218 1690.3112 1678.4553 1665.2039 1653.5391 1639.8527 1623.1305 1601.7141 1578.1842 1567.7167 1550.8841 1559.7634 1587.6113 1603.1589 1612.5457 1612.6519 1614.177 1620.3805 1631.9906 1643.9176 1652.8395 1663.9412 1683.411 1697.0863 1711.1711 1732.0392 1749.4688 1761.8979 1766.4106 1766.1031 1764.2285 1768.038 1783.1315 1804.0054 1815.483 1832.209 1841.259 1854.8805 1873.0422 1887.9388 1904.1704 1905.8411 1904.4613 1904.1407 1900.5624 1897.4753 1895.9088 1894.6807 1889.2848 1878.4333 1866.7855 1854.3124 1845.1835 1841.7933 1840.1169 1837.2523 1832.2682 1825.1453 1816.8876 1810.2352 1799.0424 1787.3416 1776.6932 1758.8715 1744.7616 1743.5372 1747.8406 1757.6658 1764.6785 1770.2214 1774.0861 1774.4115 1776.5861 1778.6173 1771.6769 1760.9337 1736.2545 1725.5846 1728.6918 1733.6467 1732.922 1723.2119 1707.3075 1693.406 1687.6282 1678.5386 1678.3556 1695.1572 1702.9094 1713.9904
1155.4429 1160.4189 1160.9207 1161.4292 1168.9872 1174.8733 1182.3622 1191.0555 1192.877 1189.9557 1186.4707 1175.9885 1168.5544 1157.8604 1158.7816 1166.1221 1173.2817 1182.8318 1189.9457 1196.5109 1204.9077 1210.0159 1211.6411 1211.3522 1210.8605 1207.5222 1206.7124 1206.718 1208.6381 1216.375 1220.2496 1225.2118 1230.9844 1234.7275 1240.302 1244.7059 1250.7861 1256.743 1263.9739 1269.7496 1274.0276 1278.6587 1279.5228 1281.2501 1287.3701 1294.7509 1298.0791 1301.8737 1300.6532 1298.608 1298.8416 1301.9817 1306.3518 1306.3757 1289.8419 1278.3005 1263.2952 1260.1594 1268.0818 1271.0621 1263.2535 1244.0634 1232.1935 1245.0065 1252.8198 1267.9784 1276.4408 1288.3068 1294.1139 1294.3015 1281.6787 1264.5874 1247.1078 1228.0234 1212.1273 1198.0768 1183.6281 1175.3323 1166.4384 1162.3652 1163.1353 1172.7943 1188.3176 1211.9608 1234.4701 1253.9166 1268.9497 1271.5083 1267.5476 1259.7806 1246.801 1247.7567 1272.7219 1289.328 1291.3605 1286.9006 1283.3265 1269.6049 1269.658 1284.0472 1295.6171 1284.3887 1279.2576 1272.9724 1267.8551 1264.5597 1261.865 1255.0968 1242.4709 1245.5294 1258.2318 1252.5291 1248.0042 1251.3939 1256.5792 1258.0227 1249.6128 1258.9742 1260.0161 1256.7064 1250.4644 1247.6873 1249.8713 1253.2423 1255.7377 1257.5107 1259.6461 1266.3586 1273.2336 1277.0292 1274.2628 1274.2696 1280.9985 1290.8247 1293.4843 1304.1702 1317.9862 1338.8376 1358.4805 1370.858 1380.7394 1381.499 1374.5076 1376.6459 1387.597 1393.3412 1404.3269 1413.4316 1424.4027 1438.0099 1446.1926 1453.9154 1461.382 1473.7722 1481.965 1492.9977 1501.8118 1511.4967 1514.9868 1517.2539 1526.9578 1541.1525 1546.8971 1551.1072 1557.6876 1567.1825 1583.0426 1590.2477 1599.1031 1600.111 1598.8617 1596.7225 1599.1742 1600.4828 1614.5098 1624.1547 1627.2168 1628.328 1627.3765 1629.3491 1633.9965 1642.0452 1644.979 1643.7078 1641.6497 1640.5872 1644.7194 1653.7786 1658.5582 1656.1359 1650.9637 1656.8853 1660.4012 1663.3861 1667.1825 1678.0117 1676.2382 1669.46 1671.4774 1680.2897 1688.9231 1693.0179 1699.4177 1700.4425 1697.085 1694.8619 1693.6967 1693.885 1693.6066 1695.4774 1699.4268 1703.363 1704.0707 1697.3922 1689.0771 1678.5636 1669.1857 1652.5519 1630.8477 1613.0387 1604.5182 1589.2771 1561.6542 1559.7722 1584.3369 1598.0472 1599.4688 1597.847 1606.2057 1615.3337 1625.9053 1634.7493 1652.4644 1664.8876 1684.5836 1697.9559 1711.8575 1730.5961 1750.0117 1767.0221 1778.9762 1784.1156 1782.6127 1779.9075 1786.2007 1809.593 1823.2878 1847.1349 1861.1438 1876.7494 1886.4327 1898.8785 1915.5808 1921.6902 1921.5154 1920.6802 1917.7117 1915.3983 1911.8842 1908.0397 1897.4166 1884.672 1873.2312 1859.1753 1854.0482 1856.6622 1854.9714 1848.1715 1844.3234 1837.1461 1827.6074 1817.8672 1805.8909 1792.4055 1780.3168 1760.6318 1749.2445 1750.7931 1753.4302 1767.9285 1774.2385 1780.2317 1786.1227 1788.0502 1789.2041 1786.6626 1773.2394 1761.6442 1740.1095 1742.9036 1748.1626 1746.1272 1741.1439 1729.8359 1711.5908 1700.5024 1698.0094 1689.525 1696.0795 1711.6086 1717.8564 1727.1498
1160.8906 1166.5737 1170.7482 1170.6199 1173.8495 1178.7141 1185.6051 1194.7115 1194.7755 1187.719 1186.9161 1179.7898 1169.1761 1157.8005 1159.6157 1167.827 1174.2161 1180.5665 1187.4907 1195.6086 1205.1194 1209.3247 1208.8054 1207.673 1207.8077 1203.7412 1205.1306 1208.9702 1216.1016 1221.8649 1226.9387 1230.4288 1232.8328 1236.3477 1241.9537 1246.2985 1253.4303 1259.3477 1266.5031 1271.1355 1273.6322 1274.9186 1276.6757 1281.2041 1286.6559 1294.8219 1297.4678 1295.176 1293.0918 1291.4708 1295.6793 1300.4169 1306.7719 1306.8751 1294.6876 1283.1777 1267.3989 1255.9689 1250.1953 1255.2615 1252.425 1239.0543 1226.6328 1240.7654 1257.4064 1270.2032 1270.2659 1273.9294 1281.8929 1290.4082 1283.604 1269.5946 1252.0891 1237.2454 1220.2629 1205.0548 1191.1971 1185.4395 1173.9863 1162.3584 1158.8909 1169.6434 1186.6847 1208.4069 1229.9707 1248.6847 1261.5612 1259.1227 1252.5961 1244.7386 1230.6466 1245.0475 1271.2089 1284.726 1281.4896 1278.1459 1276.4385 1264.0142 1264.6854 1285.1781 1295.9697 1279.7189 1267.9276 1260.4945 1256.4988 1249.9722 1248.1071 1242.9711 1237.2957 1238.7378 1244.9983 1241.8419 1241.3835 1243.8041 1250.746 1256.4623 1246.599 1255.0015 1253.1877 1246.5983 1244.0676 1247.6866 1251.7184 1255.2997 1261.6102 1267.3364 1268.7773 1273.7316 1284.3506 1289.9926 1289.1417 1283.946 1281.0032 1285.3276 1287.6475 1295.2129 1310.1931 1332.0797 1350.8566 1362.7515 1370.5396 1370.4363 1364.3346 1369.3489 1383.6714 1394.1472 1408.8118 1417.829 1430.017 1445.3263 1454.6694 1465.3168 1472.3868 1481.0187 1486.8708 1493.1971 1499.4757 1509.5709 1514.8209 1521.5796 1533.9106 1546.0909 1557.2483 1565.8389 1573.7373 1578.2197 1584.2301 1587.114 1601.2034 1609.9559 1616.3546 1616.9071 1614.0424 1613.4194 1622.8258 1626.1704 1623.9431 1624.3043 1624.2397 1623.863 1629.7272 1637.3582 1639.8582 1635.848 1630.8245 1631.7598 1639.7576 1647.684 1649.4354 1644.0549 1643.5332 1657.8906 1663.2917 1670.6377 1674.3682 1682.788 1686.1587 1684.4359 1678.4398 1681.0132 1682.4349 1683.0223 1686.3206 1685.3053 1681.6635 1681.0258 1681.6462 1682.576 1686.4753 1694.8782 1698.2161 1701.6266 1701.8131 1696.0829 1688.9827 1679.5195 1670.1547 1655.1389 1638.5216 1626.5272 1617.3489 1600.6498 1580.5446 1559.779 1564.4963 1580.583 1587.033 1597.0028 1607.4661 1617.4509 1626.6228 1638.2986 1655.3622 1665.1305 1681.2744 1694.5687 1707.2842 1721.1661 1747.7914 1768.2516 1781.7805 1798.1914 1804.9285 1808.5808 1807.0016 1815.5293 1829.5889 1851.1537 1866.4248 1885.7511 1895.7594 1907.6064 1922.2651 1930.1163 1930.8284 1932.708 1927.1821 1924.718 1922.1688 1917.7974 1906.3967 1892.3677 1880.0347 1866.1274 1865.6538 1867.3717 1866.7186 1862.485 1858.4103 1850.1798 1841.5873 1827.2699 1813.0092 1798.5518 1783.0142 1762.3003 1759.8215 1763.5955 1765.3613 1776.1345 1782.7085 1789.6119 1795.0895 1802.7367 1803.6791 1792.8292 1775.3452 1762.6936 1760.5195 1764.5244 1765.7948 1761.7324 1749.921 1737.9 1725.0941 1721.4424 1717.0837 1705.3356 1705.5043 1720.9702 1727.2344 1735.4381
1164.0385 1170.2955 1174.5021 1174.7106 1177.1311 1180.3132 1184.7755 1187.686 1185.8601 1183.2793 1182.9971 1180.4852 1172.2637 1157.7923 1157.787 1164.4792 1171.5745 1181.2545 1189.9391 1197.2749 1201.7086 1203.075 1202.2605 1200.3649 1200.0656 1200.1105 1206.4309 1212.6556 1220.7758 1226.1329 1231.74 1234.9304 1238.6787 1240.3381 1243.1034 1247.1406 1256.0764 1261.6826 1267.8842 1271.2883 1271.0193 1269.1565 1272.5381 1280.5596 1285.7437 1294.2225 1295.672 1289.644 1286.444 1289.4686 1295.363 1301.9354 1306.5996 1304.0062 1295.6132 1285.8384 1270.1561 1259.2073 1243.8862 1243.8782 1243.9369 1235.1653 1220.0837 1237.0477 1251.6155 1257.1998 1256.3372 1267.7437 1278.8334 1283.985 1279.6066 1272.0236 1262.212 1247.0649 1228.2981 1212.8359 1205.3694 1200.2952 1185.6437 1172.1652 1157.9713 1165.3365 1183.2065 1201.8829 1222.347 1237.6825 1247.4803 1247.9487 1241.4124 1231.1511 1226.5725 1243.3794 1270.0585 1281.7311 1276.0044 1271.2831 1271.1718 1259.7633 1260.7332 1280.9922 1286.6187 1278.4321 1266.9252 1249.9875 1244.2501 1235.2399 1234.9998 1234.126 1231.5559 1229.6298 1230.7246 1230.3059 1233.462 1236.8416 1241.811 1243.616 1242.3716 1244.2871 1243.795 1243.8044 1244.0612 1249.588 1256.802 1259.1508 1265.6113 1274.0804 1278.328 1281.0924 1289.6251 1297.5582 1298.9252 1293.248 1289.198 1293.4254 1294.1283 1294.1351 1302.5206 1324.3022 1342.283 1353.3331 1357.8171 1355.2144 1361.5896 1370.5275 1386.4406 1397.894 1417.2592 1425.1583 1437.8928 1451.9127 1463.2456 1475.2529 1479.712 1489.7015 1495.1013 1502.5114 1505.09 1511.7505 1517.2484 1525.7753 1539.0851 1549.0558 1558.5281 1569.475 1578.8541 1586.7523 1594.749 1596.7311 1602.5529 1607.892 1622.4257 1626.4148 1626.9841 1626.6097 1627.873 1623.7499 1614.6768 1610.8854 1610.8662 1614.749 1623.0032 1630.9102 1632.1025 1626.7192 1622.0966 1627.5758 1636.59 1641.7744 1641.7986 1636.4985 1641.6956 1659.0728 1662.0051 1664.3195 1667.6367 1669.3014 1672.4083 1676.777 1672.4567 1668.7545 1668.9934 1670.5126 1674.5227 1674.292 1670.3035 1668.9685 1669.3627 1676.5153 1685.2052 1692.8456 1696.2501 1698.9957 1700.4125 1696.2653 1689.1494 1682.2603 1674.4053 1667.8379 1659.4999 1643.7583 1625.5575 1610.2267 1594.8815 1567.5553 1564.5009 1574.6448 1590.2723 1603.1632 1613.7689 1622.0853 1629.3647 1640.8474 1654.2344 1664.3083 1687.9912 1699.5723 1710.276 1723.3627 1745.6151 1767.8898 1781.4352 1801.9606 1813.5797 1828.2539 1833.2389 1831.6328 1838.8707 1863.525 1879.4041 1897.7863 1911.1215 1923.3334 1934.4353 1942.5361 1946.5161 1944.9473 1940.1399 1936.1371 1930.3245 1923.6809 1911.6444 1898.4513 1884.1456 1875.6487 1877.1951 1877.3782 1884.244 1880.8853 1869.8613 1859.0677 1846.7957 1831.0931 1815.3165 1798.8079 1782.9393 1771.6495 1777.3029 1783.575 1784.6023 1789.6492 1796.6039 1806.3733 1813.7316 1815.4178 1807.9286 1795.7307 1779.8077 1767.7579 1775.4048 1780.4332 1778.1794 1769.4869 1756.3817 1751.1064 1745.1482 1739.5712 1730.856 1718.4397 1718.2455 1731.3502 1740.1603 1748.4563
1164.8511 1169.8547 1173.2537 1172.0067 1173.4475 1175.8135 1180.4379 1182.0421 1180.7063 1178.5801 1177.3035 1173.5333 1172.2303 1157.9374 1152.8104 1163.4581 1174.2106 1183.9275 1189.5253 1191.6873 1192.5753 1192.8007 1192.1907 1192.917 1194.2438 1201.3119 1209.4426 1216.0201 1222.5677 1229.5773 1234.9541 1239.764 1246.0874 1246.6835 1247.1893 1250.8104 1257.3925 1261.6212 1267.5106 1268.2338 1266.5516 1266.1442 1269.6904 1277.6516 1283.2292 1290.5602 1290.6022 1283.2374 1280.0095 1287.9478 1296.0488 1303.3975 1305.7316 1301.3311 1294.4166 1286.1423 1272.4152 1264.1049 1244.8108 1232.6537 1230.9658 1227.5427 1216.9193 1231.769 1242.5842 1245.4436 1249.9697 1267.5573 1280.1359 1281.397 1273.8666 1267.7118 1263.1239 1256.8926 1242.3147 1236.1958 1227.6002 1213.4124 1199.679 1176.9666 1157.8613 1157.757 1175.8497 1193.0129 1212.7615 1221.4297 1223.5209 1223.9758 1221.6558 1213.5013 1219.5563 1237.3097 1261.76 1269.796 1263.942 1256.4767 1258.132 1246.1287 1252.849 1268.4977 1270.875 1266.9479 1261.2742 1247.0581 1234.7957 1222.8585 1220.2157 1222.2231 1222.7596 1222.7603 1224.2588 1227.5397 1227.8539 1228.847 1231.4177 1233.8713 1234.8647 1240.2394 1243.7905 1249.142 1255.7867 1261.9634 1272.5415 1276.234 1273.5264 1278.661 1290.6888 1295.4436 1300.5521 1311.8672 1317.5555 1308.0446 1303.9509 1311.1254 1312.4542 1304.0719 1302.5254 1307.4026 1327.9078 1340.4631 1343.6912 1349.6826 1364.8903 1375.8986 1393.2944 1404.2865 1424.4087 1433.6688 1444.1251 1451.6581 1453.9867 1460.505 1467.9393 1478.2146 1484.1075 1494.7789 1501.8125 1512.6918 1522.493 1533.6644 1542.0686 1552.3875 1560.5546 1569.9083 1579.7611 1588.1573 1597.543 1603.4207 1609.4052 1611.8942 1621.5283 1626.4203 1622.2384 1615.8103 1621.6366 1620.8831 1609.3818 1600.0046 1599.2025 1606.3865 1617.723 1623.5403 1620.8624 1614.605 1608.4846 1618.1224 1625.0752 1625.5422 1622.6876 1629.7301 1640.9259 1651.4823 1650.1249 1649.4067 1651.67 1654.4248 1660.2434 1664.3955 1660.5925 1654.3307 1652.8339 1657.9187 1663.915 1663.932 1660.7151 1658.6239 1664.295 1674.2968 1681.8469 1686.9442 1689.4879 1693.5815 1694.109 1690.2413 1682.8149 1674.5162 1666.3472 1660.8395 1651.8422 1639.2863 1626.7554 1610.2477 1598.1063 1577.7528 1568.47 1574.3112 1591.0193 1607.4924 1622.4645 1631.8562 1645.549 1657.3436 1674.4895 1685.441 1699.0648 1705.0449 1721.8947 1733.6488 1753.3884 1767.3381 1787.2269 1807.1758 1820.8202 1838.8403 1847.7214 1854.9563 1859.6354 1877.9008 1893.6025 1910.4993 1927.6755 1940.9321 1948.7131 1958.9033 1965.285 1964.1495 1954.9095 1950.884 1943.4459 1936.8059 1923.3596 1908.4768 1895.4197 1892.9581 1894.0828 1894.6809 1892.916 1887.9257 1873.691 1861.5339 1848.1622 1831.9031 1817.3141 1803.1061 1786.7155 1782.3462 1787.4058 1797.7026 1799.2496 1803.178 1806.9233 1820.1772 1826.0126 1825.0817 1814.3779 1800.4944 1784.0126 1776.4248 1785.1649 1787.327 1783.4331 1774.7167 1764.4604 1762.9685 1758.9532 1752.7126 1746.0302 1738.4304 1740.0388 1747.2328 1755.7269 1765.001
1162.7426 1169.7117 1171.7244 1169.6831 1169.261 1170.6425 1174.3336 1175.1936 1174.0024 1173.6248 1172.2532 1168.6064 1166.6796 1157.6462 1149.9142 1161.3876 1173.4323 1183.4791 1185.9803 1185.4403 1185.7255 1186.7195 1186.2692 1196.3719 1207.9355 1207.6227 1210.2046 1215.8907 1220.6749 1227.9451 1233.6722 1238.4561 1244.1401 1246.1813 1249.9929 1252.5867 1256.7937 1259.8336 1261.5842 1261.0364 1258.7407 1260.6289 1267.7622 1275.3534 1279.9943 1284.1135 1283.6696 1277.5289 1279.4211 1288.4219 1294.6875 1302.3473 1303.7007 1299.1252 1289.3767 1280.7192 1269.082 1264.4043 1252.9237 1243.7235 1230.5602 1218.4078 1209.657 1217.8915 1222.1305 1234.0811 1246.4917 1264.9703 1277.3362 1277.3037 1264.8888 1254.2081 1252.7764 1259.6373 1252.8781 1243.186 1232.1433 1216.8961 1203.3622 1184.0404 1162.6936 1154.7091 1170.0117 1189.0389 1205.9332 1204.8629 1204.9407 1206.2523 1206.9147 1201.7991 1210.1254 1228.7631 1251.1431 1257.801 1251.5187 1241.8856 1242.3473 1236.3038 1244.6348 1256.2477 1255.2954 1252.2162 1248.3195 1237.2318 1226.2955 1212.0516 1214.0112 1216.9706 1218.7738 1224.3274 1231.946 1232.498 1232.7609 1233.0233 1231.4227 1233.2831 1240.0511 1246.7583 1252.9696 1259.3107 1265.2415 1271.7167 1282.1761 1292.0502 1287.2865 1283.0364 1294.1766 1304.4183 1309.9954 1321.4335 1327.7054 1319.3517 1315.5444 1322.2979 1324.348 1320.3209 1314.864 1307.406 1307.416 1325.198 1344.1763 1355.1924 1370.7566 1380.208 1398.6053 1410.9724 1426.8666 1434.4133 1442.0057 1446.2421 1446.9594 1450.9641 1459.8293 1470.5042 1476.8032 1488.6472 1497.3419 1510.5608 1521.5557 1533.8893 1544.5911 1555.0879 1562.1111 1570.0969 1578.3544 1587.2964 1596.1826 1605.9427 1618.4752 1623.8885 1627.0062 1624.4427 1617.8486 1608.4711 1611.391 1615.3678 1607.6237 1597.1941 1596.2507 1602.4365 1613.3827 1618.1676 1613.9952 1609.0277 1597.7222 1610.7396 1614.1281 1612.729 1610.2775 1627.6062 1636.1835 1646.1602 1640.4662 1637.5341 1639.8552 1645.6461 1651.1503 1652.4424 1647.2408 1641.0508 1642.4856 1650.1638 1653.9293 1653.9485 1651.296 1653.4546 1662.2815 1671.8256 1678.2024 1684.8529 1685.5636 1686.5293 1688.2498 1685.9524 1680.1115 1669.7544 1658.7256 1651.4746 1640.0292 1632.0493 1620.7812 1610.813 1601.9019 1587.7417 1582.2933 1574.3209 1586.7374 1602.6156 1615.6917 1629.3093 1646.8363 1662.5848 1681.4508 1692.7114 1702.9364 1710.5631 1727.39 1738.3313 1760.4343 1776.9149 1794.8625 1814.7767 1825.2924 1843.2085 1853.7911 1869.0608 1872.87 1883.2974 1897.337 1916.8748 1934.1302 1947.2457 1956.5507 1968.4314 1972.9086 1972.5846 1967.8492 1962.9124 1953.8141 1946.017 1932.2256 1918.7336 1907.9177 1906.4846 1907.5935 1907.244 1903.8011 1896.2318 1880.1737 1869.7571 1854.1117 1843.0723 1827.1187 1811.0109 1793.5312 1796.4033 1802.3622 1808.9177 1811.5754 1814.6832 1817.162 1826.2083 1831.7997 1833.0515 1821.4987 1807.5902 1792.4196 1794.6224 1803.2562 1802.6859 1791.7231 1785.3861 1780.9324 1782.2639 1779.7634 1774.5782 1764.514 1749.9058 1751.4738 1757.1508 1763.2642 1771.9398
1164.8834 1172.2336 1170.9657 1167.8341 1163.6566 1164.8586 1168.0686 1168.5771 1167.037 1166.569 1165.3802 1158.6652 1156.1746 1149.5709 1149.5732 1162.1682 1172.4928 1175.0415 1174.0315 1174.0355 1177.7233 1181.3668 1183.0435 1196.4381 1203.9232 1207.0496 1209.129 1216.3414 1219.4095 1226.8625 1231.6636 1236.7985 1242.9525 1245.8245 1249.8855 1252.5214 1254.7695 1256.4126 1256.3623 1255.3665 1254.9795 1259.7374 1265.9468 1272.2675 1275.6512 1278.2283 1276.9379 1274.0029 1278.4921 1287.9158 1294.1177 1299.3347 1302.6316 1298.8285 1290.6208 1282.4459 1270.8622 1265.1851 1251.1302 1242.4683 1230.4081 1218.6355 1206.7935 1207.9795 1219.0449 1235.3577 1245.9066 1261.5613 1272.2157 1274.5282 1265.7838 1249.5483 1240.3021 1247.7061 1252.2389 1247.8329 1237.9963 1223.5955 1209.2191 1188.9523 1173.3302 1153.9015 1162.8923 1182.6089 1196.387 1193.7657 1191.9731 1193.4343 1195.4808 1194.229 1202.9952 1221.6168 1241.5618 1245.4695 1239.3342 1232.9573 1232.0436 1224.4027 1233.6161 1240.7607 1239.7507 1237.0222 1232.2836 1219.7434 1211.5679 1211.9784 1219.6528 1226.3229 1235.8531 1243.4586 1248.9392 1246.8558 1247.2778 1249.5297 1250.3955 1258.0323 1260.6525 1265.1508 1271.0586 1274.2502 1281.0175 1286.8087 1297.5793 1301.3712 1297.77 1291.4122 1298.3562 1309.672 1317.0046 1328.085 1334.4385 1329.1152 1324.9552 1331.8319 1336.4954 1337.7976 1334.2115 1327.3982 1323.1173 1324.6237 1346.7339 1361.9835 1379.8335 1390.2787 1403.0092 1409.6581 1419.2417 1424.5732 1432.0054 1437.1078 1436.24 1441.6572 1452.0225 1466.7029 1476.6392 1487.9196 1500.4238 1515.739 1526.0903 1535.0839 1547.2905 1556.1063 1562.3199 1568.5361 1575.3406 1581.0496 1590.2336 1603.3708 1616.0491 1624.6005 1624.3942 1617.6074 1610.3221 1599.0972 1597.8733 1606.3678 1600.3999 1591.1973 1589.1886 1596.6252 1608.2076 1611.849 1608.9584 1602.4229 1594.5217 1603.5255 1606.8856 1605.4738 1608.5315 1623.2638 1633.4265 1637.4009 1632.5544 1630.3848 1628.0221 1638.927 1642.2598 1641.3478 1634.6508 1628.9119 1634.6318 1640.2228 1643.8726 1644.179 1645.2832 1649.2511 1658.8109 1667.2916 1671.5958 1672.7886 1673.4425 1679.3894 1683.0841 1686.4801 1682.7295 1670.3762 1656.1295 1645.0964 1641.0029 1636.3281 1625.4496 1613.7131 1605.5894 1597.4855 1589.6481 1577.6215 1587.4535 1603.2374 1614.7628 1629.9355 1649.4542 1663.8207 1678.1277 1687.4465 1702.7736 1708.9694 1726.5177 1738.272 1764.9802 1780.3159 1796.5131 1812.5458 1826.5227 1846.5795 1858.5177 1879.3658 1889.3412 1898.4496 1904.5828 1925.0691 1941.8435 1956.412 1965.7686 1973.4939 1977.4808 1977.5913 1973.8455 1968.7007 1960.0922 1950.5908 1937.1448 1924.5281 1916.7388 1917.415 1917.0709 1919.0708 1911.4886 1904.441 1890.287 1883.0343 1866.5934 1853.2664 1835.5034 1817.552 1807.0698 1816.0758 1823.9135 1831.4594 1832.9602 1834.7438 1835.2845 1839.6836 1843.533 1838.4047 1825.0314 1810.0311 1802.7939 1808.8909 1815.0237 1812.2334 1802.775 1797.0342 1796.7141 1797.4349 1795.5292 1790.2924 1776.7859 1766.2456 1768.3998 1773.0963 1776.0679 1782.3712
1166.6552 1172.3138 1172.6012 1168.0247 1158.991 1158.4277 1160.2511 1160.5092 1157.4696 1158.1134 1154.8169 1148.6552 1145.3774 1145.7853 1151.1161 1160.7385 1162.0375 1167.3069 1172.9355 1179.8723 1184.2753 1193.3083 1197.1158 1202.8701 1206.5704 1210.9431 1215.2113 1221.6727 1223.6705 1228.3602 1231.8818 1236.8591 1243.9888 1246.1273 1248.3623 1249.3566 1249.3995 1250.2074 1249.9253 1249.0385 1253.2278 1258.6116 1263.5573 1269.3849 1271.0338 1270.4253 1268.6934 1268.3014 1276.0658 1286.1339 1291.7422 1294.5642 1295.7748 1298.1238 1293.3508 1286.3644 1277.9409 1270.5095 1257.2537 1247.6217 1235.4258 1223.2898 1206.7916 1206.0835 1221.0322 1238.5718 1252.9427 1268.3069 1271.3861 1271.0542 1266.4858 1251.9205 1234.4062 1225.5151 1232.8356 1236.9446 1234.5712 1223.9941 1211.3885 1189.5039 1175.3363 1153.8015 1154.4281 1174.4208 1180.0806 1176.0504 1172.3997 1173.3761 1176.2838 1176.7531 1187.2831 1202.3541 1217.381 1221.4569 1215.1249 1211.3231 1207.4624 1212.3893 1217.9037 1225.692 1224.8311 1219.182 1214.7057 1207.3871 1207.3971 1219.3092 1230.7687 1238.6476 1245.5337 1258.564 1266.8732 1264.605 1268.6411 1271.8297 1274.5531 1284.3499 1289.2408 1289.8296 1292.4211 1294.551 1301.6534 1307.6152 1318.0348 1320.9889 1316.7416 1311.4609 1312.8187 1323.2672 1336.9059 1342.8195 1351.765 1346.672 1341.6819 1352.5167 1355.6283 1352.8951 1349.6047 1341.8424 1340.4498 1329.36 1341.8174 1359.396 1379.5127 1388.0265 1395.7008 1399.4528 1402.8091 1407.646 1413.7394 1417.4553 1427.2598 1439.1842 1452.4839 1467.7686 1481.5874 1497.7943 1510.668 1525.7488 1533.0177 1540.9174 1549.8893 1556.269 1561.4707 1565.8197 1571.0719 1577.2104 1588.3904 1602.1812 1614.314 1613.5044 1615.1763 1609.4045 1598.3011 1587.6219 1582.6775 1590.1968 1586.7223 1580.2415 1584.5839 1591.6149 1601.7842 1602.5245 1599.0792 1593.6138 1583.3604 1586.2876 1588.4333 1592.5044 1602.6451 1621.5774 1628.0439 1623.1603 1617.511 1618.2834 1621.0748 1630.6439 1630.4568 1629.3799 1624.687 1618.6849 1626.4214 1627.8015 1632.9622 1637.1605 1646.785 1651.0984 1653.9951 1654.9578 1657.5278 1665.9331 1674.9778 1684.4951 1692.9792 1694.3728 1688.635 1679.7461 1668.6675 1656.9686 1646.6211 1638.0507 1629.689 1620.9667 1614.3845 1605.1307 1600.3184 1593.0986 1590.9598 1603.0828 1612.7363 1628.3217 1644.3673 1655.9885 1672.5128 1686.2578 1703.0538 1711.1848 1727.5262 1739.7285 1764.7646 1778.5066 1794.3713 1807.6384 1822.4424 1845.9056 1859.114 1883.4985 1897.3311 1920.0616 1929.8618 1941.7963 1952.4009 1964.3507 1972.2568 1978.7054 1983.2281 1984.1421 1981.165 1977.952 1972.2173 1959.0948 1945.9792 1935.9879 1933.4749 1933.1525 1929.5698 1922.5704 1914.0797 1907.6118 1896.1952 1888.4003 1874.3873 1861.4973 1839.8888 1820.2988 1818.8213 1829.8486 1840.0796 1845.9276 1847.5062 1848.8927 1848.7375 1849.4308 1850.1812 1841.8333 1827.5671 1811.8369 1810.7482 1817.9558 1821.1455 1818.7614 1810.5784 1804.9023 1808.2908 1808.5581 1805.1311 1807.1183 1792.5853 1788.9456 1790.6432 1792.4355 1793.7915 1796.351
1164.2216 1169.2379 1172.1523 1167.4828 1158.777 1154.5626 1152.8993 1151.894 1148.1016 1147.74 1147.3452 1144.6459 1144.6559 1146.0591 1148.0192 1157.447 1157.9515 1171.0223 1185.1338 1194.2244 1197.7783 1198.8822 1200.5392 1206.7566 1208.328 1208.8976 1215.7397 1223.1053 1227.8422 1232.134 1235.0813 1238.9427 1244.2858 1246.4316 1246.8265 1244.5614 1244.0209 1244.722 1244.696 1244.2725 1250.7583 1255.7057 1258.0773 1261.9098 1262.5465 1259.8542 1256.6611 1267.9462 1274.1931 1283.2495 1285.5991 1288.834 1293.5432 1296.8683 1291.2729 1282.8365 1275.436 1270.2629 1260.801 1255.6429 1242.0488 1230.1023 1211.0763 1198.2767 1215.9705 1234.4387 1250.4066 1258.7749 1256.6713 1255.3367 1254.1407 1247.2295 1236.1083 1219.0724 1219.7885 1223.1149 1225.012 1219.3269 1208.2007 1189.0052 1175.6653 1153.7068 1149.7749 1166.3521 1164.2736 1159.802 1157.7744 1158.9178 1163.1884 1164.9491 1173.9613 1181.6613 1193.9912 1196.7014 1188.0463 1187.3231 1187.332 1190.8849 1191.7434 1204.0027 1205.0873 1205.0931 1205.0938 1207.3828 1213.7711 1228.6312 1240.7649 1250.1285 1256.2213 1264.7689 1272.2189 1272.9287 1277.0763 1283.0269 1285.5052 1296.9915 1301.7797 1302.6643 1304.3671 1306.1268 1313.5441 1321.7429 1333.6692 1337.2289 1333.1406 1326.4706 1320.7395 1334.6583 1347.1906 1356.0608 1363.3389 1359.2871 1354.2399 1368.3311 1370.1342 1368.184 1363.9432 1357.0757 1360.4655 1348.0605 1341.8189 1357.9191 1374.4299 1380.7844 1385.5574 1387.8611 1392.8846 1398.8665 1403.139 1413.0614 1428.3036 1440.3336 1451.4849 1465.6382 1481.1438 1498.0043 1511.5271 1525.4841 1534.6316 1541.6068 1547.8275 1548.1818 1549.1921 1552.5934 1562.4967 1575.0646 1585.4515 1595.4427 1599.631 1601.5602 1603.7365 1608.3931 1597.0496 1583.4735 1573.6111 1580.6375 1575.9844 1572.2992 1581.4117 1587.5322 1598.2765 1595.2982 1589.4844 1586.6881 1575.5126 1572.3149 1575.0389 1590.1364 1601.7891 1618.6185 1623.0211 1609.9675 1606.2738 1611.3346 1615.1943 1617.1157 1615.2678 1614.7528 1610.719 1608.277 1617.3958 1624.944 1639.3522 1646.9392 1649.1886 1648.2286 1647.797 1648.4194 1658.4385 1668.6309 1677.8289 1686.4948 1696.6183 1697.6749 1692.7771 1685.2152 1674.7686 1663.7012 1652.9077 1643.5486 1635.6432 1626.9185 1622.3492 1616.1501 1611.0934 1603.3208 1602.8153 1603.5643 1614.4045 1629.1027 1641.1976 1655.9139 1673.2902 1686.5532 1701.7689 1709.5225 1726.3175 1738.8422 1761.1359 1774.4825 1788.413 1802.7489 1818.5082 1839.6713 1856.1528 1883.7194 1897.4669 1922.0157 1935.6746 1951.0038 1960.0718 1966.5298 1975.0529 1980.8713 1986.9379 1989.0315 1985.9683 1980.2192 1975.0201 1962.4097 1950.9038 1944.0172 1943.1036 1939.9237 1932.6005 1925.4421 1917.4938 1911.7883 1903.6031 1895.423 1881.5898 1870.4944 1842.3744 1824.827 1830.6368 1845.2253 1849.838 1854.8385 1855.8484 1856.3713 1855.803 1855.4141 1855.1266 1845.0995 1832.4368 1820.8048 1827.752 1831.7987 1834.2797 1833.432 1828.7346 1826.0747 1829.4247 1830.4874 1826.0165 1819.8177 1805.5673 1801.7025 1803.707 1805.3253 1805.7289 1805.3281
1160.925 1166.3335 1167.3625 1163.6134 1155.9962 1150.2946 1144.1471 1142.359 1142.366 1142.376 1142.3767 1144.6407 1149.0168 1154.629 1158.0867 1162.4604 1169.9309 1182.4951 1194.2214 1199.6974 1199.9459 1198.283 1197.8236 1200.9061 1202.0076 1207.8596 1214.7643 1222.9889 1227.0638 1233.7487 1236.5151 1240.9189 1245.3704 1245.7466 1245.557 1242.2053 1240.5671 1240.7833 1241.6417 1244.2688 1248.875 1251.705 1254.8196 1257.3719 1256.1713 1252.2428 1256.0925 1267.2994 1272.8948 1280.9449 1281.993 1286.4458 1293.7841 1296.2208 1292.7933 1280.4297 1268.1372 1263.3273 1253.4863 1247.8003 1237.9845 1227.4065 1212.2109 1193.0548 1211.9534 1230.8617 1241.8663 1245.4526 1244.0752 1242.326 1241.0972 1237.551 1230.6082 1217.1237 1204.9954 1208.7284 1212.1919 1207.3503 1197.1758 1182.9086 1175.9718 1155.7001 1149.6717 1153.3143 1153.3225 1154.1304 1157.767 1161.5746 1166.8876 1167.5959 1168.3903 1170.4902 1174.3025 1177.9044 1180.5781 1187.3152 1197.8669 1204.259 1205.9672 1204.0113 1204.0207 1208.4459 1214.4558 1226.0354 1232.8915 1241.901 1252.5907 1263.5386 1270.5914 1274.5564 1281.2449 1286.2793 1290.0518 1297.316 1300.6365 1309.2935 1316.9969 1314.811 1316.1416 1319.0238 1329.0958 1334.9081 1346.3402 1348.6124 1344.7228 1338.2465 1330.3406 1337.1475 1354.1129 1364.448 1371.2103 1368.1694 1364.0559 1380.2849 1384.121 1382.353 1375.9941 1369.0967 1374.0383 1365.4645 1347.0171 1351.9637 1362.2434 1367.6693 1373.6384 1379.7467 1393.7656 1400.6273 1404.874 1413.786 1427.9319 1442.1498 1456.4033 1470.1625 1484.552 1496.3197 1512.5854 1526.4587 1534.8766 1539.1985 1536.3815 1537.3103 1539.3536 1549.1805 1561.9904 1572.1484 1578.7059 1584.3667 1587.7511 1587.7787 1591.6892 1602.7292 1595.1309 1580.7502 1567.8701 1568.2593 1565.2435 1565.7742 1575.9521 1581.4108 1589.9231 1589.1597 1583.2562 1580.5181 1571.3329 1563.765 1573.1345 1585.9764 1599.4214 1612.9832 1613.9167 1602.7916 1594.8002 1604.0062 1606.2188 1603.7592 1601.5393 1599.9031 1595.5868 1599.6752 1618.6805 1632.7113 1645.9652 1648.9312 1641.1655 1636.5896 1636.5945 1649.9891 1661.2191 1668.1842 1675.2581 1681.7828 1692.3169 1697.7467 1698.0022 1693.1377 1679.4012 1670.1698 1659.0774 1647.7216 1642.0217 1635.9276 1630.995 1622.9437 1617.3098 1610.7052 1611.3455 1607.8013 1613.599 1629.6558 1641.0177 1655.226 1670.9349 1682.342 1698.3997 1704.9677 1719.6276 1731.0833 1751.8566 1765.4778 1782.277 1807.9526 1823.7388 1840.9299 1858.1271 1885.4799 1900.4529 1922.6852 1936.0858 1953.0886 1965.4222 1971.3452 1976.4473 1982.1326 1987.7271 1990.1838 1987.327 1980.6877 1975.4529 1964.1406 1956.0656 1949.7985 1947.5128 1943.1505 1935.5613 1927.9257 1920.1328 1914.4812 1905.4187 1898.3395 1883.3202 1873.2802 1849.9333 1843.0406 1850.0453 1864.6696 1870.2701 1873.4293 1873.5404 1871.6417 1870.0083 1866.6857 1862.9564 1850.8464 1838.6163 1829.9304 1836.8096 1842.0515 1846.2821 1847.0919 1844.8015 1843.7823 1845.9099 1844.7257 1840.345 1833.5377 1823.8948 1820.5959 1821.5463 1821.7114 1820.2642 1816.443
1159.4415 1162.4557 1161.9905 1159.2604 1149.9691 1144.5806 1135.1799 1135.1817 1143.1184 1150.9209 1158.5358 1165.5607 1170.064 1173.7511 1181.073 1185.6664 1183.2704 1184.6317 1190.2324 1192.0256 1190.1361 1186.5103 1186.7867 1193.2017 1196.621 1207.6617 1213.1768 1221.6083 1225.5443 1231.9042 1235.2008 1238.7637 1241.8354 1241.9595 1240.7977 1239.114 1235.7256 1235.0828 1240.0862 1244.46 1247.3673 1247.0612 1248.629 1249.8571 1248.9893 1248.748 1255.4161 1266.7054 1271.4982 1275.8684 1278.4286 1284.7184 1293.049 1295.0109 1289.4736 1278.8221 1266.1323 1256.9561 1244.2318 1239.5718 1233.1099 1224.374 1211.4659 1191.4777 1206.9305 1223.9761 1232.4504 1235.4393 1236.3297 1234.7748 1231.0425 1228.6963 1221.0328 1211.3684 1196.8206 1188.6411 1199.4973 1205.3894 1197.2981 1181.312 1169.7115 1150.9839 1149.5627 1152.6323 1159.436 1163.444 1170.3656 1177.5074 1186.3722 1190.6418 1191.7719 1189.0802 1182.4819 1182.4827 1195.298 1206.6755 1216.9956 1223.8358 1225.606 1218.1305 1218.4706 1225.2367 1230.7037 1241.5927 1255.2424 1262.6168 1268.4442 1278.564 1288.8375 1291.7867 1299.3076 1306.6556 1310.6859 1311.5897 1315.9054 1322.3125 1331.6925 1337.8126 1341.7831 1345.7664 1352.7091 1356.8516 1365.4364 1369.3 1366.1661 1359.5082 1352.359 1354.1523 1357.3179 1372.6105 1379.8893 1379.0012 1374.3416 1384.4088 1392.049 1392.5387 1387.1332 1381.9749 1384.0293 1378.1261 1366.0417 1353.5287 1355.2805 1359.4114 1369.1371 1383.837 1403.5435 1412.5099 1420.8107 1431.0105 1441.8754 1450.0289 1459.9741 1473.2843 1487.7325 1499.5109 1517.3204 1527.3846 1533.5184 1532.7358 1531.1598 1533.7957 1538.8033 1549.3456 1560.9453 1567.4026 1570.0375 1571.9745 1568.6796 1573.402 1584.0964 1599.7638 1593.1418 1576.5239 1562.1665 1555.5402 1553.6698 1558.9454 1567.2916 1574.483 1579.67 1578.2072 1570.9253 1568.1448 1562.0026 1557.7407 1568.6304 1579.2716 1592.9446 1607.3641 1605.7329 1592.7606 1584.2252 1595.1385 1597.1934 1592.1415 1588.9337 1586.244 1589.408 1603.5321 1620.5972 1634.0461 1640.3456 1633.6418 1621.5773 1629.0869 1638.6768 1647.2849 1653.7289 1660.3679 1670.5186 1677.3088 1685.0953 1691.4664 1700.6509 1702.7697 1694.3331 1682.9099 1672.8298 1665.6003 1660.8337 1654.3781 1645.1093 1630.4904 1624.6102 1625.3744 1624.5482 1618.7208 1624.6736 1632.0129 1635.8324 1646.9336 1660.546 1675.8507 1696.5458 1704.0161 1722.6516 1737.3433 1761.0398 1774.7053 1792.7303 1811.0306 1830.0479 1849.7593 1868.7545 1891.0125 1911.3928 1930.745 1942.7205 1956.5773 1967.3842 1977.4955 1980.6381 1983.7434 1986.0625 1987.6211 1986.1293 1980.4579 1976.0411 1967.7738 1962.8727 1958.6841 1953.6185 1946.3989 1938.0636 1929.996 1921.6871 1914.9562 1905.1248 1897.8423 1881.8458 1872.5077 1861.0677 1866.0198 1869.7811 1879.5121 1884.8636 1887.2026 1886.0791 1883.6232 1881.7083 1875.8666 1869.4254 1856.1392 1843.2637 1835.6161 1841.9105 1848.7797 1854.1422 1855.5042 1858.0579 1858.8492 1859.5302 1856.8936 1856.3423 1850.3098 1841.7722 1839.2321 1838.7089 1837.5656 1833.826 1828.3442
1155.3851 1158.3718 1156.754 1152.326 1144.171 1137.6748 1135.1779 1139.3827 1149.7136 1159.5076 1167.3501 1173.1696 1175.864 1179.2567 1184.7061 1185.4751 1179.8774 1178.7239 1182.3937 1182.9337 1181.9177 1182.166 1186.9351 1196.0006 1199.5942 1207.0542 1212.399 1219.5018 1224.0549 1230.9167 1233.9479 1237.0646 1238.7771 1238.5033 1236.3044 1235.0303 1231.9299 1231.6688 1238.8884 1244.0754 1243.3452 1241.2316 1241.3824 1241.9031 1241.9051 1248.7241 1256.3856 1266.1396 1268.4741 1270.2389 1275.3102 1281.4629 1290.0979 1295.2748 1289.5098 1282.1564 1270.9618 1262.1218 1248.7798 1237.9597 1221.715 1210.7476 1202.4288 1186.6394 1200.0352 1213.6786 1219.4695 1225.0811 1228.161 1227.2589 1225.1604 1223.8804 1215.5763 1204.897 1194.8 1179.5918 1187.4508 1197.2202 1190.2213 1171.7657 1162.7545 1149.3506 1149.4545 1164.816 1173.0338 1181.6824 1187.4644 1194.2933 1204.147 1208.8511 1215.0428 1216.312 1210.3776 1206.1306 1218.1058 1229.6132 1239.2983 1246.6399 1245.1589 1242.9016 1245.7288 1252.3979 1257.52 1265.0194 1270.2689 1277.6013 1281.1604 1288.8944 1297.4797 1300.8533 1307.5613 1314.5415 1320.9402 1321.4828 1323.2216 1333.4813 1343.2867 1355.0859 1360.2811 1360.8376 1366.9044 1371.6003 1380.4346 1385.5432 1379.7163 1372.007 1366.1858 1367.7347 1366.5031 1372.9684 1380.9491 1381.8519 1379.5173 1382.4215 1389.2712 1398.771 1398.7115 1396.786 1395.1768 1384.1689 1371.9481 1366.665 1375.8485 1376.5679 1369.1415 1380.8929 1398.4036 1406.9376 1418.8839 1430.1755 1444.1887 1457.262 1468.4204 1481.9652 1491.582 1503.0038 1521.2162 1527.9653 1531.4124 1527.3999 1523.8334 1531.7802 1539.3177 1548.0918 1555.1332 1555.7744 1554.8718 1554.6769 1559.9822 1571.7826 1582.1477 1595.0358 1588.8346 1572.6708 1559.4159 1547.026 1545.2507 1551.9183 1561.7985 1564.4238 1567.0541 1566.329 1558.7571 1553.5725 1551.3319 1548.4446 1559.153 1573.7313 1587.8514 1600.6445 1598.2705 1579.0026 1569.9878 1579.0223 1581.9813 1574.9961 1572.0966 1571.4631 1587.4064 1603.1287 1614.1744 1626.6788 1633.4647 1624.8501 1618.4628 1626.48 1634.1594 1641.3033 1650.3665 1661.2378 1670.0853 1674.8091 1680.4667 1685.8822 1698.1997 1706.7734 1705.3171 1698.7657 1686.9065 1676.9197 1668.4476 1662.6085 1652.1799 1637.6244 1636.1969 1637.6975 1634.6687 1627.6661 1632.691 1644.2151 1652.4668 1659.7252 1672.6851 1686.302 1699.1398 1704.6591 1720.3749 1735.6448 1760.4718 1774.339 1790.6473 1809.5067 1829.0134 1850.9558 1870.0475 1891.7 1911.5291 1932.103 1944.1046 1957.7472 1970.5201 1978.2479 1980.637 1981.4874 1981.5918 1980.9061 1980.4624 1978.6077 1975.8435 1970.517 1967.4645 1963.97 1958.1031 1951.4696 1943.9624 1935.934 1925.839 1918.2615 1906.8461 1899.2632 1883.5455 1875.7513 1877.3281 1879.557 1880.3489 1884.3463 1891.2791 1892.6641 1891.6632 1889.2544 1886.9315 1880.0946 1874.7826 1863.1305 1852.9203 1846.1377 1850.4176 1858.8033 1866.6752 1872.0737 1877.3212 1878.8993 1878.5223 1875.6196 1868.7887 1862.634 1853.8311 1850.7362 1848.7916 1846.4771 1842.3602 1839.3888
1150.5007 1152.7095 1150.2949 1145.6295 1137.1309 1131.2779 1135.1771 1145.2666 1155.9156 1165.5988 1173.656 1175.4897 1175.9209 1177.0114 1178.3818 1178.2303 1171.8369 1170.9191 1174.9342 1175.703 1176.4109 1182.5704 1188.3826 1198.5421 1203.079 1209.9633 1214.2208 1219.875 1224.0081 1231.0625 1233.6733 1235.4608 1235.979 1235.2754 1232.2146 1230.4005 1229.8716 1231.6628 1236.7163 1238.9478 1237.7063 1235.8291 1235.4395 1236.6794 1242.7502 1252.4836 1257.9475 1264.212 1264.9178 1269.2657 1273.6226 1280.3535 1288.9464 1294.9569 1289.9988 1283.2833 1274.007 1264.4371 1252.2422 1241.4326 1224.0227 1209.1041 1194.41 1185.8733 1194.1592 1205.076 1214.6173 1221.6453 1223.0955 1221.2823 1218.4376 1217.1678 1209.125 1196.927 1184.4519 1172.4022 1172.2955 1182.1141 1177.2782 1162.4838 1153.3224 1149.2436 1150.7856 1170.3599 1180.4574 1191.1857 1196.1909 1202.7505 1211.5714 1217.8275 1230.8617 1234.6221 1230.6602 1229.0229 1232.8552 1241.7505 1252.2047 1260.8391 1262.0796 1261.2188 1264.2732 1269.7847 1275.6771 1283.2043 1289.1309 1293.8555 1294.9062 1300.0624 1308.35 1314.8042 1316.895 1325.2332 1333.2526 1335.8866 1338.4191 1351.4448 1357.403 1368.0458 1373.6787 1375.0024 1376.3362 1381.4424 1390.7723 1395.174 1389.0181 1378.7727 1374.1239 1374.8842 1375.6654 1376.4478 1381.9564 1385.3872 1385.7391 1386.384 1390.1473 1402.9436 1407.0109 1406.7075 1401.5321 1388.224 1379.4679 1380.5836 1381.4657 1393.2767 1384.1863 1380.8985 1397.1995 1410.9243 1421.9124 1431.2955 1441.8031 1459.5358 1475.2925 1490.8668 1500.6996 1509.1155 1524.4087 1529.3606 1530.4641 1526.1255 1518.3142 1522.1398 1530.6256 1539.5583 1546.4813 1542.0548 1539.9076 1546.7843 1559.1738 1570.5122 1580.2966 1590.1328 1585.2209 1568.715 1559.2762 1540.5714 1538.0127 1547.2166 1555.007 1557.3892 1559.9966 1560.0879 1552.3014 1545.8002 1542.0165 1539.989 1558.3148 1571.1403 1582.5958 1593.0677 1592.8857 1574.5176 1560.8265 1565.817 1570.5475 1565.979 1558.8717 1563.4183 1581.8785 1595.4124 1604.8069 1615.934 1623.9994 1613.8158 1610.4856 1620.3315 1631.6329 1644.3291 1653.7496 1661.3826 1665.3275 1669.8564 1676.2864 1682.0516 1695.1078 1708.3363 1710.9508 1706.7889 1698.2101 1687.5233 1674.9188 1666.5845 1659.9707 1647.5237 1647.8871 1648.0419 1643.3905 1636.8362 1642.0768 1663.785 1675.719 1685.2289 1690.2133 1698.9236 1706.2629 1714.1439 1721.6013 1730.3661 1751.9791 1769.4698 1785.516 1806.1381 1826.3317 1848.7114 1867.2595 1888.4794 1908.517 1923.7479 1942.342 1956.6553 1968.8329 1976.9004 1979.1863 1979.1815 1978.0928 1976.7074 1976.4819 1975.7482 1969.0652 1969.1453 1968.0192 1963.887 1958.8555 1952.6793 1945.4338 1937.692 1928.7017 1920.9563 1909.1595 1901.9158 1889.3807 1889.7069 1892.1665 1893.3164 1892.2825 1893.2021 1897.0831 1899.5394 1899.7725 1898.0553 1895.0626 1888.167 1880.8422 1869.0999 1860.2179 1853.594 1857.6429 1864.8018 1873.4039 1881.8542 1887.8943 1889.1194 1888.5873 1884.3901 1877.6091 1872.0044 1866.6326 1862.7649 1858.6108 1854.9481 1850.1472 1845.722
1143.1234 1148.985 1145.9933 1137.6021 1130.9208 1131.2775 1140.287 1150.5492 1160.2229 1168.4659 1171.2301 1168.7361 1167.9266 1167.28 1166.3486 1164.8781 1158.6375 1159.0841 1168.5796 1171.8405 1178.9037 1184.0367 1190.9385 1201.5024 1207.7357 1215.4703 1219.7856 1223.6083 1225.7982 1230.1053 1232.3013 1232.6821 1232.3943 1233.0341 1228.8865 1225.6282 1225.6947 1230.9905 1235.1168 1234.4791 1231.489 1229.9895 1233.0853 1240.3276 1247.2437 1256.3931 1259.2977 1260.3864 1258.3816 1264.5979 1270.8381 1279.9385 1289.2091 1295.2386 1290.2689 1282.4222 1273.0857 1263.344 1250.9445 1238.3638 1222.8553 1207.7285 1197.1412 1185.864 1185.8635 1199.8762 1209.9521 1216.2925 1218.3064 1215.7871 1211.8417 1207.6147 1202.3685 1194.234 1173.0648 1161.9526 1158.0532 1164.3102 1159.9442 1147.7281 1145.6252 1149.143 1158.0822 1174.0729 1186.6215 1202.1274 1210.9769 1217.4294 1226.7318 1235.495 1244.7111 1248.5342 1246.7386 1245.1143 1245.9746 1249.9551 1260.6001 1271.563 1273.3171 1273.2563 1276.8173 1282.6671 1290.7111 1306.6063 1310.2379 1310.5869 1311.6295 1318.3768 1325.1284 1333.373 1339.0626 1344.9702 1350.194 1359.3619 1362.9059 1374.3457 1379.7802 1388.4917 1392.3068 1393.8363 1398.3855 1402.3163 1411.3986 1409.7433 1398.9716 1393.8546 1387.9257 1388.1212 1385.9139 1385.1046 1386.688 1390.9955 1391.7377 1390.0457 1390.6257 1405.5016 1414.084 1412.8298 1406.5978 1393.4915 1395.1519 1398.8462 1392.684 1395.7651 1403.5743 1389.1388 1391.4679 1415.22 1429.9131 1443.5714 1456.7852 1471.7439 1484.053 1495.7344 1509.0907 1519.9569 1527.3071 1526.5356 1526.5532 1524.1439 1514.9528 1516.1984 1522.86 1531.5009 1536.7965 1532.1824 1531.0817 1544.3298 1557.6222 1568.5424 1575.8494 1583.2903 1578.3052 1564.726 1554.8918 1535.0251 1527.416 1536.6133 1543.7552 1545.3029 1550.9744 1551.2205 1540.5348 1532.8085 1528.6044 1537.6404 1557.5375 1569.0709 1575.1637 1582.4513 1585.9518 1575.3639 1558.3145 1555.3641 1561.9966 1558.9436 1549.6862 1558.3262 1572.5267 1578.4561 1585.6791 1602.5267 1608.8483 1601.3221 1610.4083 1623.3247 1635.9657 1645.7637 1646.7494 1647.9028 1653.3579 1661.1473 1672.4886 1680.7552 1697.3958 1709.709 1720.751 1720.1062 1712.194 1706.0577 1690.3569 1675.3201 1668.1232 1661.9971 1660.9532 1661.6688 1659.6713 1650.5757 1652.5211 1681.1023 1688.1885 1694.7355 1705.3145 1713.9524 1726.453 1733.2465 1741.5764 1746.3412 1756.4989 1766.0443 1778.764 1796.1191 1815.9163 1837.7646 1858.3522 1878.402 1898.4615 1913.7654 1937.3386 1952.6633 1964.079 1970.8969 1973.4946 1972.1606 1970.3788 1968.858 1967.2767 1963.6747 1961.8929 1965.8546 1967.286 1963.4469 1957.4011 1948.6309 1943.6329 1935.5068 1927.6824 1921.6436 1912.1128 1905.3024 1903.0244 1904.8019 1906.8506 1906.3474 1902.301 1902.2583 1905.5331 1908.0825 1909.3859 1907.6527 1903.9991 1896.3848 1890.2344 1875.7889 1867.0171 1860.8854 1864.405 1868.7251 1876.6183 1887.5796 1893.418 1892.7656 1889.1539 1883.7568 1878.1416 1874.5009 1870.4448 1868.4297 1863.8502 1857.333 1852.298 1848.4692
